ply
format ascii 1.0
element vertex 1342
property float x
property float y
property float z
property uchar red
property uchar green
property uchar blue
end_header
8.48154 1.87557 15.3757 181 148 120
5.99066 1.27719 15.2811 188 164 156
4.83427 -0.410975 16.847 154 138 112
6.27802 0.0471414 15.2453 128 101 84
0.645974 0.567228 12.9745 135 36 24
5.41147 -2.50845 14.6334 126 64 38
4.88163 -4.39648 13.0874 114 70 38
6.69075 -1.51098 14.2127 12 10 14
4.6579 -0.0192235 16.7584 148 139 111
4.50407 -4.90614 14.4425 148 146 94
-6.41607 0.646811 11.4078 94 8 8
6.679 -1.66276 13.8319 12 9 14
-4.55156 -1.92757 15.0184 126 82 60
5.74334 2.61541 15.9572 174 151 143
6.46298 -2.4212 15.3831 161 158 106
5.837 -3.33041 15.6943 132 91 45
-0.566032 1.64935 16.7059 128 83 56
-4.23654 1.61675 15.7352 88 38 21
7.0053 -2.89477 12.7064 129 84 62
8.25131 0.646436 14.5955 102 72 40
-2.51028 -2.63329 17.6048 156 112 82
-6.29785 1.76896 16.4897 152 122 102
1.05844 0.601669 13.1565 94 34 20
-3.52354 2.12847 15.7117 98 56 40
-5.58917 -3.74781 14.2437 64 32 14
5.80132 1.99228 14.3969 178 155 148
-4.81016 2.06491 15.4469 100 55 32
2.20155 1.26949 13.0214 149 30 23
-5.74548 2.18901 16.1193 138 96 74
-5.72995 -3.52546 14.3491 80 45 24
-0.757041 -1.06704 16.5787 157 118 105
7.23579 -3.12514 12.7058 156 136 127
-1.20954 -0.652926 16.2095 182 138 122
6.13425 2.11164 15.1684 170 142 132
-7.68384 1.9861 12.7739 150 42 40
7.28391 -3.15579 12.8135 156 136 127
-3.797 -2.49741 16.7388 116 78 50
6.58771 -2.47152 13.848 166 110 98
9.00789 1.8367 15.5671 166 150 135
-6.43352 1.61228 16.731 106 74 45
-0.546262 1.74482 16.5034 112 68 39
5.4921 -4.01116 12.3458 112 62 32
-1.21137 1.88054 17.3604 128 78 48
7.66247 2.42431 15.4485 146 112 100
-1.85223 -3.7143 15.3557 180 114 92
5.43376 -0.125996 16.0257 144 118 103
5.01887 0.34927 17.3517 150 128 108
-3.00981 -0.455183 14.6387 110 66 44
7.32371 -2.84368 12.5169 128 90 66
5.75682 2.07752 13.9609 145 100 81
5.16147 -3.58909 10.0128 120 10 8
8.98396 1.91611 15.4839 167 151 136
7.70763 -1.53887 13.9148 168 108 77
-5.77804 2.32452 15.6819 161 136 123
1.73054 0.122003 16.5359 159 147 124
0.74637 0.242392 17.7817 147 136 112
2.61736 2.64001 13.8075 162 142 131
6.28481 -1.97123 14.394 160 128 112
5.37715 -2.52409 9.32872 163 142 135
-6.03734 1.54658 12.4708 87 57 62
-6.19526 0.943959 12.2323 110 35 38
0.158479 2.14896 13.5655 152 124 106
-2.78266 -2.87862 17.5528 143 137 85
-5.3512 -2.76937 14.2577 28 10 5
-2.37087 -3.94497 15.4764 149 144 94
5.03334 1.49156 16.5079 123 102 86
7.76979 -1.72064 13.9809 164 90 56
5.78296 0.600878 14.9653 147 101 80
2.24708 -2.33391 20.4025 136 128 104
0.275844 2.32279 15.4418 154 127 108
7.42881 -2.83154 12.837 135 114 82
6.18526 2.04415 15.2837 178 157 148
7.04135 -3.21606 14.8241 144 113 100
5.36136 -0.0705027 16.0218 136 103 83
1.68475 2.68202 13.4723 150 31 28
6.23061 -6.00775 15.5298 158 152 100
6.47568 -1.02218 14.8164 182 105 68
5.12528 -3.61266 14.6092 157 154 102
7.97786 -0.761209 14.3011 158 142 120
8.03487 -2.04313 14.2291 149 86 52
-1.80709 -2.38913 15.4197 168 120 86
5.94912 -5.70558 15.3291 148 126 104
-4.04608 -0.40399 14.236 106 58 38
0.363508 1.66477 13.218 160 26 24
6.11385 2.34591 16.32 167 139 129
4.97408 0.533779 13.6283 148 106 90
-1.80315 -2.41445 15.5705 166 117 83
-5.7924 0.270644 11.8124 152 107 45
1.88935 1.19481 13.0096 146 28 22
2.96622 1.74742 13.3359 154 136 121
6.02035 -2.00675 20.5856 158 149 125
5.93001 0.832795 15.4106 179 151 142
8.33651 0.830238 14.7029 172 154 146
0.666661 2.70991 13.929 156 31 29
6.80088 -2.95786 14.1724 140 111 100
0.829258 0.729383 13.0014 128 34 22
4.91819 -2.41931 15.0105 160 154 104
-2.57776 -2.84527 17.451 143 136 86
6.49425 -4.48745 11.9132 14 14 11
-2.04183 0.299068 16.5654 198 154 130
7.93072 0.437133 18.0528 146 118 104
8.17646 0.77171 15.2517 110 68 44
-4.29376 -1.7963 15.0781 151 108 91
1.00954 1.00352 12.7715 131 26 18
-1.23658 2.0274 16.8338 163 132 122
-6.48349 0.786199 11.7006 108 24 26
6.94593 -4.98948 12.7787 14 12 12
0.946742 1.00126 12.8161 128 24 17
-5.7668 -3.76292 14.5031 63 33 16
0.722848 2.45956 13.4492 160 26 26
9.42453 1.00337 15.752 156 142 124
5.87736 -5.79146 15.3527 148 126 110
5.46102 -4.69058 13.4301 118 74 47
-1.28315 0.542946 16.8496 184 136 114
6.89708 -2.95548 14.6897 160 131 118
6.13133 -0.675889 14.5922 170 108 74
5.76268 0.717417 15.4455 177 150 139
-4.70768 1.54128 15.4108 124 73 54
4.76923 0.652672 17.4525 128 116 88
2.1296 1.60665 12.5804 156 38 38
-0.53469 -0.291315 16.3559 176 132 114
-5.51895 1.26351 16.0248 171 125 102
-6.35427 0.359549 11.7463 91 4 4
-4.50335 -0.845811 14.2491 140 93 74
7.36239 2.64297 15.5863 172 151 144
0.242095 2.16965 14.1484 161 116 98
0.259493 0.24301 17.6709 160 122 98
6.74821 -3.19163 11.3949 174 150 142
-2.6793 -1.05581 14.089 141 90 68
-4.98391 0.55446 15.7309 176 130 106
-5.20021 0.242727 15.8267 176 128 105
7.03018 -3.64433 11.9713 170 149 140
-3.95395 0.384247 16.0535 148 102 86
5.53482 -2.6992 13.0977 162 157 104
-7.52675 1.68527 12.0308 164 138 122
10.679 1.85388 18.0418 163 150 134
-6.49938 0.000668867 10.7814 30 23 64
0.614992 1.48263 13.3823 162 26 24
1.09174 1.00653 12.99 128 26 20
7.43657 -0.362606 14.8704 135 87 64
-4.16261 -2.96541 16.14 148 143 90
3.75692 -2.57613 21.6242 78 76 42
0.693912 0.663235 12.7235 133 34 22
-6.72109 1.30119 11.3801 120 17 20
1.4074 0.947731 12.7851 142 32 24
-1.30541 0.0192891 17.0588 182 136 114
0.57569 4.5107 14.4067 168 148 142
-6.59965 3.04128 12.8281 120 10 14
-9.5508 -3.52594 20.6131 142 136 88
-6.58674 -1.04748 11.1847 164 147 124
-6.10734 1.63146 12.4766 58 26 28
-7.0136 2.02534 12.1343 76 34 36
-6.45573 0.956281 11.9621 21 16 32
-6.98083 2.78507 13.0795 121 16 21
-2.06097 -4.07134 15.6015 58 24 8
-6.80416 2.7939 13.489 90 12 10
7.58619 -0.928296 14.1759 167 130 110
-7.13637 1.03577 11.5422 96 5 4
-7.00263 -0.413642 11.0894 160 36 36
-6.56366 0.562707 11.6496 72 5 4
6.57942 2.24543 15.1195 140 96 82
-3.66457 -2.34196 16.1237 126 84 58
6.62002 2.27484 15.1716 134 87 67
6.7044 1.59109 14.8088 84 105 92
-6.59403 1.51972 12.4388 82 60 60
-6.57609 1.83958 12.1526 98 38 43
-6.08114 3.72727 13.4442 160 130 122
-5.89087 0.988439 12.2114 124 18 15
-4.71127 -2.22607 15.0545 97 48 26
-7.09872 1.783 11.9772 122 16 18
-6.89862 2.05011 12.0021 100 26 26
-5.92777 3.66314 13.5513 160 132 124
8.22314 0.772968 15.5446 100 58 30
6.86786 -5.24721 13.0787 120 12 12
5.82873 0.631289 14.6839 130 83 58
-6.25637 0.255517 11.7941 84 9 6
-1.51983 -0.832279 16.6249 147 100 82
-4.70986 2.22331 15.5281 140 112 101
-2.43636 0.482115 16.6366 172 120 95
-7.16285 -0.961208 11.2816 160 146 123
1.01679 1.84516 13.0348 134 120 112
8.33033 -1.53539 14.2192 142 110 89
2.35808 1.87432 13.1757 146 129 115
6.92968 -3.89288 11.9207 126 87 68
-1.92254 -3.92534 15.3892 162 100 77
-6.19541 2.99873 13.5815 130 10 12
-1.73501 -4.64556 15.497 60 40 18
-0.124159 -1.48037 17.4649 151 142 117
-1.40904 -4.2958 15.3442 49 21 14
1.14514 1.669 13.3128 94 88 70
-6.66283 1.47187 11.8885 84 68 70
-3.76818 -2.02613 16.1976 92 48 28
6.74021 -0.751298 14.2552 182 156 138
-5.75655 0.599616 12.504 140 99 40
8.89411 0.788156 15.3941 166 148 138
-7.60333 1.99575 12.6354 150 44 37
6.57174 0.313917 16.2608 143 118 103
8.84122 0.714369 15.6212 108 80 56
-5.20692 -3.50692 14.3695 40 20 14
3.0291 -3.00207 24.231 78 78 38
-2.23329 1.9331 16.6735 168 136 124
-7.16392 0.893049 11.171 158 100 38
-6.43171 1.56279 12.5411 125 14 16
-3.39983 0.661985 5.22259 138 48 42
-5.8766 -2.38878 15.0231 86 50 36
4.22095 -2.58165 23.3685 136 128 106
7.39931 3.29248 15.8918 168 148 140
-7.57767 1.92589 12.5921 150 40 36
-5.85228 1.34682 12.6396 163 142 126
-0.0472009 -3.83273 15.8562 147 143 95
4.16614 -2.46091 22.3444 137 129 106
-4.7938 -0.895079 14.3964 139 92 73
0.835293 -2.77428 23.1118 148 140 114
5.74278 -5.10505 12.9498 159 142 108
-4.97776 1.79328 16.5578 121 70 50
-5.67702 0.358236 12.4364 147 105 45
-6.60661 1.57794 11.7297 123 16 16
5.75761 -2.65937 24.9487 140 131 108
14.2348 -4.42576 23.7939 144 143 92
-0.735273 -3.51909 15.9496 35 16 10
3.77105 -2.31633 22.9266 138 130 107
4.73238 -2.65419 24.5571 136 129 106
-6.72452 0.282053 11.3441 120 10 11
-0.653491 -0.71883 16.2395 172 130 114
-6.50446 1.93397 12.3098 118 18 19
6.67751 -3.22696 12.3115 108 90 85
-6.73269 3.80413 12.7693 130 16 16
8.3991 0.124069 14.9023 144 126 107
-3.79041 -1.84115 15.8397 132 94 70
0.304111 2.25226 13.7697 160 33 30
-5.77517 0.657033 16.444 170 122 96
5.45255 -3.38127 12.9291 32 10 9
8.16296 -0.113079 14.6872 179 154 140
7.00489 -0.0276438 14.7784 31 23 15
-6.23167 -1.36488 15.1786 160 141 119
-5.54792 -2.17301 14.8997 50 18 10
-0.0266261 -1.97346 15.9401 152 142 120
6.52139 -2.30334 13.7757 126 12 6
-3.36739 -2.4907 17.8423 158 146 122
5.8834 -2.06918 15.3731 26 37 24
5.41151 -1.75249 15.3771 158 129 114
4.57685 -2.75765 10.1442 147 124 113
-5.49677 -1.27995 15.1288 36 8 5
-3.04049 -2.18324 17.4411 58 20 10
7.10292 1.14559 14.7096 144 104 88
1.26591 1.83683 12.8989 128 36 30
0.691604 2.10704 12.8761 129 114 110
7.09625 1.48137 14.6842 176 156 148
-0.264244 -1.889 16.0129 128 84 65
6.39996 -3.00987 12.4928 163 138 128
6.09631 0.112264 15.5066 138 110 100
-6.21129 1.21166 12.181 90 60 61
-2.6731 -3.14624 16.1214 150 146 96
-6.12529 -1.04582 15.3852 98 56 31
7.81589 1.93045 14.9337 176 149 140
5.33177 -2.77989 16.5263 152 148 102
1.23298 1.91153 12.9706 150 23 21
8.10499 0.447766 15.4796 132 98 82
1.32263 1.56649 12.5255 86 83 68
-4.44069 -1.98922 15.1398 162 118 102
-2.77409 -2.77246 17.6723 135 130 78
-4.32157 -1.72647 15.2243 144 103 86
1.63744 2.80832 14.1814 152 28 25
-15.0565 -4.56894 31.7291 119 114 74
-6.33829 1.7293 12.2273 120 22 24
-2.76378 -2.86343 17.6409 141 134 84
2.73308 -2.97595 23.9226 82 82 44
3.062 -2.65342 21.021 80 82 44
-2.20166 0.977773 13.4609 127 77 60
-15.3553 -4.47996 32.7572 157 144 118
-14.7066 -4.21469 30.5419 159 144 120
-4.0722 -0.974784 14.1189 112 70 42
6.9322 2.47078 14.8613 165 144 139
-3.39555 -2.65987 17.6995 124 121 73
-13.6696 -3.98408 29.3995 162 148 124
-11.8922 -3.24054 24.0362 160 148 125
-0.741037 -0.77999 16.2437 168 130 112
-2.61289 0.169336 11.6833 173 132 116
-6.49413 -2.94153 14.8375 144 138 90
-6.33191 -1.18696 15.2256 160 146 124
7.99999 2.69127 15.7091 167 147 140
6.55928 -2.0037 14.0384 134 98 86
8.41314 0.948198 14.9207 188 171 165
6.20167 1.03578 14.819 174 148 142
-1.68428 -0.951872 15.0507 113 66 42
5.5792 -0.322712 16.5073 152 112 93
-6.24606 -2.03939 15.093 93 60 36
6.97378 -0.827 14.3527 174 144 128
5.98396 2.04969 15.1455 198 174 168
6.47451 -0.816315 14.4182 166 126 106
8.04319 -1.72927 20.5313 124 72 45
-5.06239 -3.46096 14.2318 36 19 9
-5.3301 -3.36049 14.1422 30 10 4
8.39328 -5.62353 14.1463 154 150 102
-1.47521 -3.18251 15.0176 155 94 74
5.32207 -5.47606 13.6588 155 152 103
-0.822305 -4.23124 14.7825 39 20 6
7.24027 -0.666784 14.4198 136 94 76
5.66703 0.548663 15.2079 130 84 61
-5.31554 -3.56361 14.4924 42 18 8
5.56638 0.354784 15.3199 91 47 22
6.04432 0.192998 15.3273 112 90 76
7.27286 0.344175 14.5861 154 123 110
-3.89932 1.50707 15.4238 98 48 30
-3.7654 2.20561 15.5706 152 124 118
-4.42405 -1.52304 15.0256 129 90 70
-5.43488 1.12091 15.8536 170 124 100
6.27024 2.97607 15.4767 158 139 132
-1.22447 -4.91042 14.9172 152 149 100
6.04343 2.37865 15.9768 168 141 132
-6.21788 -2.2156 15.0847 100 76 54
-4.40441 2.19097 15.607 140 110 104
5.37922 0.383904 15.5602 137 100 79
-4.24468 -1.90872 15.1952 148 108 92
-5.19701 1.06741 15.8507 168 121 100
-5.33291 -4.12469 14.5763 148 144 92
8.40519 1.28046 14.8194 31 14 12
7.24255 -2.80802 14.3622 165 144 136
-0.164422 -2.52823 15.8576 26 10 6
-0.31583 -1.59366 16.4096 156 143 120
6.40645 -3.17932 12.5174 104 82 75
0.839778 3.18227 13.9938 82 49 40
0.164484 -1.99817 16.5891 154 144 120
7.17022 -4.0069 11.7332 16 13 10
-5.54019 1.60966 16.1191 188 142 120
-2.073 1.20923 16.513 186 136 114
-1.19949 -3.07592 15.6894 134 83 58
4.90644 0.0114786 16.4073 163 138 122
-2.30529 -0.842593 14.2369 174 117 101
2.35519 1.87744 13.0877 149 132 120
8.14802 -1.88862 13.8618 174 148 126
-0.745251 -2.88545 15.9216 47 18 11
6.6121 -4.05269 11.6439 168 127 106
5.11222 -3.40712 13.5999 101 63 25
-2.03546 -3.11038 16.0575 148 140 92
4.9312 -3.78585 14.3144 118 86 58
-4.53229 -2.07935 15.013 160 113 92
-3.59755 -1.81373 15.8514 104 66 34
9.34111 -3.04586 15.696 146 144 96
-0.55353 2.42654 14.5763 159 131 119
0.982366 2.87046 13.9219 54 20 20
7.48907 -3.09257 13.7475 128 80 61
6.90783 -3.91566 11.7889 129 86 66
-3.4185 1.63322 15.6587 53 16 9
6.87068 -3.86781 11.7864 128 91 78
-2.40849 -1.11954 14.1536 104 56 30
1.06146 1.564 12.6905 90 78 62
-1.41974 -3.29886 15.651 152 92 70
-0.921776 1.74768 16.1246 118 70 44
-1.42751 -3.7362 15.1769 172 99 76
-4.43523 -1.31913 14.6349 134 89 65
6.43765 -3.11798 13.6076 122 72 54
6.2889 -5.43823 13.4093 156 140 108
8.63096 -3.9109 16.1901 156 134 128
-4.31172 -0.383025 14.2034 117 70 46
2.18446 2.05971 13.164 159 30 30
1.45861 1.72931 12.7997 92 86 72
-2.41828 1.61037 16.5758 180 131 106
6.59507 -5.58816 13.4903 125 84 53
-0.455461 1.72304 16.705 107 68 40
-5.7041 -1.1579 15.1336 38 12 6
-3.63044 1.73614 15.6374 82 32 18
6.79511 -4.49596 12.4964 88 52 28
-5.86001 -2.52646 15.0378 66 32 18
-3.49153 -1.49663 13.868 103 60 36
-2.64726 0.244102 16.6095 137 84 70
6.07404 2.75305 16.2379 174 152 144
-5.02276 -2.00135 14.8591 151 99 75
1.85159 2.62564 13.2409 153 30 31
8.41677 0.719714 15.4993 100 62 32
-4.91536 2.12598 15.6982 106 63 42
-5.94946 3.44513 12.9558 130 14 18
-2.74898 0.695813 16.7336 98 44 28
7.51731 -3.34161 13.7764 152 134 127
5.34094 -5.63283 15.0647 157 140 124
1.26251 3.23793 13.8795 157 124 123
-6.30461 2.62273 13.1056 132 14 17
5.84634 -4.26626 12.2766 126 7 8
6.14742 -5.73113 14.447 158 150 102
-6.10515 1.49665 12.4243 97 48 51
-5.76643 1.77777 12.7145 160 138 123
-6.39736 1.85835 12.2813 116 17 18
-1.08038 1.95452 15.6931 162 134 122
-4.99369 -3.73449 14.4097 46 28 10
6.95411 1.75232 14.7119 180 160 153
-1.25959 -4.79515 15.2307 149 146 96
-4.94102 2.17868 15.3905 141 109 98
-5.83424 1.8307 13.0233 160 138 123
-5.03226 2.23062 15.5335 142 114 102
-4.18337 -3.13291 14.9241 150 145 92
-6.2702 -1.88372 13.5211 161 149 123
-3.32009 2.13357 14.5911 158 132 125
8.44994 -2.09698 13.7937 140 138 89
5.86847 -4.98331 13.0179 127 88 61
-2.08081 2.31382 16.7796 168 139 130
-0.198809 -4.21346 16.2037 150 146 96
-1.54359 1.95592 16.14 164 134 122
0.478982 0.048477 18.0649 146 116 84
-3.67203 0.63815 15.6899 157 118 107
-4.4044 -3.62253 15.3242 150 146 91
7.5609 -4.62163 12.6123 35 34 24
4.58956 0.5238 17.0145 134 124 94
6.80046 -4.72954 12.6972 99 38 18
-4.70563 -2.52236 14.0807 154 82 61
1.74822 2.10524 12.9057 32 17 9
6.3779 1.90461 14.9941 30 14 10
6.18195 -0.218931 15.0132 18 14 12
6.62612 -1.40259 14.142 11 9 9
6.55961 -1.5998 14.2138 160 132 120
6.34596 -1.46475 17.1614 157 148 126
8.04111 -0.381723 14.5597 185 158 136
6.63933 -3.20955 12.2312 84 68 60
5.98756 -3.61462 12.5998 170 143 136
-0.287754 -1.56585 16.3922 158 147 127
-2.88904 -0.220216 16.7737 58 19 10
5.27874 1.18734 15.437 97 68 68
-5.42182 -0.129623 12.8127 128 12 12
5.25496 -0.839564 15.9065 66 42 20
6.55155 -2.39794 14.2971 158 128 116
6.9775 -5.71701 13.2507 116 64 34
-0.20229 -3.50694 16.2446 145 142 90
6.50016 -1.57923 15.8449 160 149 128
-5.84382 0.784746 12.3114 160 142 124
-3.6515 -0.693369 13.7837 174 112 90
5.06886 -2.20397 14.8487 172 138 119
9.45329 -5.19664 14.0033 97 66 30
5.18237 -0.958397 16.0188 156 124 100
6.04314 -2.76763 15.6956 76 7 3
2.82725 1.78011 13.9304 96 76 69
6.93737 -5.99844 13.4409 100 42 18
7.10324 -0.236183 14.879 138 113 100
6.63428 -0.299036 15.0137 116 85 70
9.10735 -0.107839 15.8145 44 17 6
-4.59819 -3.45821 14.8139 156 98 72
7.86677 -3.54856 12.1043 123 80 56
0.0313364 0.503511 16.6821 176 130 112
-5.81059 2.19918 13.2143 154 133 116
5.90968 -0.786381 16.0302 96 74 44
7.18985 -4.04766 11.7721 12 10 7
5.18536 -4.68321 13.3843 159 140 118
-2.15532 -2.03561 15.7217 169 118 87
-0.94887 -3.89101 15.4621 108 66 48
4.96545 0.579123 16.1892 170 142 126
6.57737 -2.54 14.4106 99 96 80
5.40429 -3.2624 13.3587 110 64 34
8.2731 -3.16113 12.7305 151 130 120
7.18216 -5.30212 13.1133 12 8 8
6.66352 -3.33501 11.9432 103 88 83
-2.68783 -1.47234 14.8952 148 101 78
5.82788 -3.17468 15.869 106 58 25
6.28487 -0.647602 16.8019 70 46 18
-2.68933 -1.47146 14.8109 150 102 79
5.58537 -2.93256 16.1744 144 140 90
7.1324 -1.49811 13.8909 38 27 24
6.60817 -4.05809 12.1101 120 72 42
7.9936 -1.89748 13.7983 174 142 122
7.06305 -6.2602 13.2534 185 128 94
4.92011 -3.90119 14.2619 160 136 118
7.80209 -2.0451 14.2631 50 22 12
-2.77923 -2.18239 17.1829 128 78 46
7.39087 -3.06863 12.5776 176 156 150
8.75916 -3.54651 12.6518 158 125 87
0.432781 1.64099 12.7648 162 24 23
6.62212 -2.23018 14.8603 162 132 120
7.70706 -3.67452 12.0736 164 141 135
6.59397 -3.09799 12.266 159 140 132
6.68143 -4.10653 12.2687 120 72 42
4.7935 -1.34561 16.494 154 144 124
6.385 -1.08952 17.5705 118 106 72
-5.36613 -3.8299 14.3457 57 30 13
6.80838 -6.14445 13.3516 105 64 28
6.69889 -3.07323 12.4664 154 134 126
-5.92177 -0.859863 15.411 92 54 32
8.28715 -3.4358 12.5362 150 134 123
8.97945 -4.04367 12.8767 150 140 113
-1.25739 1.75831 18.1155 116 66 40
4.79497 -4.13618 13.76 156 134 117
5.36166 -4.10982 12.6001 112 7 8
6.46708 -3.20099 12.2851 140 119 110
6.91503 -3.53241 12.0785 149 132 125
5.61096 -2.3475 15.1547 108 40 20
-2.6147 -2.63153 17.5532 122 82 49
9.1552 -1.05278 15.4587 149 140 116
1.25894 2.23616 12.9486 158 26 24
5.33981 -4.70999 13.6195 160 142 118
5.48983 -3.18418 13.0591 154 108 80
8.14144 -4.39332 12.5568 40 28 19
7.04389 -2.75788 14.3146 159 132 122
2.28188 1.48581 13.4201 116 72 66
5.21145 -5.09064 13.7656 130 110 94
8.82447 1.42183 15.0939 150 134 120
6.05607 -0.147019 15.3213 126 102 86
7.91504 -2.8948 12.6919 128 82 58
6.12438 -0.0960762 15.4137 126 101 88
-2.28586 -1.8869 15.9315 156 106 74
-0.424004 1.56849 14.3235 109 68 43
7.85838 -3.82286 11.8993 117 76 53
7.83025 -1.7436 13.9326 178 108 78
0.701651 2.13095 12.7925 128 111 106
9.02093 -1.30766 16.0423 142 81 52
4.40254 -0.272096 16.721 153 142 118
6.25624 -1.20976 13.8546 157 94 66
-3.96771 -0.247087 15.0285 132 85 69
6.36579 -5.51172 13.1318 156 144 104
5.62409 -2.20299 15.2357 116 63 40
6.66302 -5.67267 13.4956 112 76 50
2.02915 1.10289 12.3362 140 28 22
6.84282 -3.55684 12.1979 158 140 134
-4.4638 -1.36313 14.5046 109 64 40
8.18822 2.17031 14.8528 149 120 108
1.03253 1.53984 12.5345 97 74 58
8.59713 -4.12087 12.3179 106 66 37
7.54072 -5.58145 12.2708 152 147 92
7.65078 2.45381 15.8517 134 99 84
6.49676 0.978328 14.4584 156 103 80
-1.93022 -2.02466 15.4331 174 124 98
2.15322 1.23852 13.2756 142 28 25
9.71557 0.216414 15.9977 150 139 120
5.46718 0.155759 16.1736 84 41 20
-2.08202 -4.3989 15.7503 89 73 37
-1.42123 -1.14194 15.2522 145 102 84
5.76148 -1.52937 16.5098 154 122 102
6.69729 -1.62649 13.8015 10 7 10
-3.85829 -0.0753996 14.9515 136 90 76
8.24235 -4.47864 12.7247 80 56 36
7.21893 0.25149 14.6457 174 148 134
1.79165 0.466671 15.6172 163 148 126
-5.62695 -3.7185 14.2814 56 28 14
-4.95804 2.04613 15.3569 102 56 30
-1.44788 -3.67014 15.1407 176 101 76
8.8713 -5.72506 13.904 152 149 97
-2.09448 -0.777104 15.0433 120 70 52
-5.26947 -2.5798 14.3462 27 7 4
-1.55125 -1.10561 15.0836 108 64 46
6.55819 -3.05429 12.4534 158 136 129
8.2476 -5.56046 13.7753 152 148 96
5.48915 0.601298 14.3383 160 118 98
6.77109 -3.93451 11.3125 84 62 48
7.12126 -0.35098 15.1268 145 122 110
7.81021 -1.77514 14.39 162 91 60
8.02799 -1.50373 13.8791 179 146 127
8.98221 -3.40405 12.934 136 134 86
7.53387 2.30268 14.8295 135 100 86
-3.06519 -0.466186 14.0836 134 90 78
7.74967 -0.152061 15.1159 116 94 74
4.96483 0.0212315 15.2882 91 58 28
0.468736 1.16689 12.2464 130 23 17
4.73381 -4.44565 14.4218 140 133 94
1.56868 0.7172 13.6634 132 27 19
7.87972 -3.69029 12.0095 125 82 59
6.53091 -5.65698 13.367 146 132 92
9.09384 0.542999 15.7967 104 74 36
8.84291 -3.22091 13.1454 114 96 60
-1.68337 -4.41295 15.3649 50 25 15
-5.78616 0.107024 12.5096 138 98 36
0.690896 0.0908298 18.6756 143 132 111
4.98672 0.325552 17.1498 162 138 118
6.87238 -3.05248 12.4598 156 136 130
-0.990996 0.553614 17.2654 171 128 112
-1.67455 0.710856 16.5618 160 104 82
9.17416 -5.17498 14.4162 146 120 98
-6.67996 0.404871 13.6855 144 94 39
-3.88019 -2.20608 15.1312 130 94 69
-3.09991 0.216563 16.5694 127 80 66
6.49601 -3.09032 14.2288 145 112 93
-4.98126 -0.363053 15.3418 166 116 94
6.05347 2.24818 15.0933 142 105 92
5.08476 1.89732 16.1005 156 132 124
-5.96002 1.011 16.5957 164 117 92
1.04308 -3.08402 24.1449 107 106 60
6.14506 2.27381 17.0432 156 114 98
-3.07096 1.44778 16.0499 98 50 32
7.04184 -3.55026 12.0856 172 149 143
1.49311 1.31243 12.5227 146 30 30
8.6375 -2.9034 15.4757 128 77 56
6.03871 -5.82753 14.6998 152 144 95
-1.31042 -1.08305 15.8207 140 94 78
-5.7094 -2.35193 14.7541 73 40 24
-5.29079 -0.416198 12.9514 160 143 123
4.78593 -3.82222 14.3805 144 140 93
6.15785 -5.67662 14.1892 154 146 99
0.815959 -2.79748 23.702 149 138 114
-9.42144 -4.02626 21.0008 144 139 91
0.18425 0.234246 16.9994 162 122 99
-5.88298 0.495031 12.3158 143 97 38
-1.2629 -1.34356 15.575 148 108 90
-0.354813 0.862966 16.4786 118 77 56
-4.12929 -2.19412 16.5821 130 92 60
-5.55959 2.3459 15.8149 152 124 112
8.48774 0.616723 14.9248 100 68 36
7.37137 -3.10466 12.8077 158 136 130
-3.69421 2.278 15.7655 156 128 120
6.60887 2.63972 16.6 168 145 139
5.5754 0.458444 15.7609 126 80 54
-1.4469 -0.25572 16.9709 180 134 112
-1.38757 2.06338 16.9452 160 130 120
9.43894 1.19038 15.9607 152 141 124
-5.086 1.61932 15.9041 132 85 65
-6.32703 -1.22611 15.2094 158 143 122
-0.903096 -0.312799 16.2384 158 118 100
6.36986 -6.00406 15.1619 152 146 96
5.83256 -5.21526 12.607 154 146 96
-0.285656 1.03903 7.86712 164 134 124
6.51517 1.34089 14.8741 181 158 151
-0.584406 -1.03583 16.9742 148 109 86
-5.78447 -3.41605 14.194 78 42 22
5.42154 -2.49102 23.2116 138 130 108
9.24133 1.02193 15.1243 153 140 124
-0.394115 0.254882 16.7048 152 104 85
6.77751 -2.40451 13.7893 120 13 12
-6.14293 -2.05698 15.2608 158 104 80
0.603118 0.882371 12.8268 20 10 9
6.02665 -1.20793 16.9101 78 43 20
-4.68934 -3.31052 14.5137 44 10 2
2.13124 0.669925 14.0761 137 34 24
-0.22792 1.63681 14.0906 156 128 118
-1.01459 -3.23267 15.7886 32 12 6
7.19159 -5.92706 13.2979 86 42 19
8.57799 -4.5023 12.6064 144 120 96
2.91207 1.64021 13.9755 103 87 72
8.23348 0.205547 14.9263 138 118 99
4.95278 0.818292 15.8267 122 25 20
2.40576 1.97603 13.6556 146 128 117
-6.21168 2.59742 13.9536 153 130 116
7.18041 -6.36648 13.0518 110 70 36
2.49907 1.76546 13.723 107 92 86
-1.92482 -1.19214 14.7304 150 96 82
-4.49 -3.50883 16.3577 150 144 93
7.89886 -0.313159 14.9269 114 90 67
5.27939 -0.382656 16.5161 84 60 40
-3.23278 -2.27817 17.7428 76 36 7
9.41084 -5.58049 14.2426 101 76 33
-5.43752 0.0156697 12.6661 145 94 40
-3.25232 -0.990583 13.8657 126 72 48
2.69131 1.93885 13.8216 147 129 116
6.9759 -5.40394 13.0831 122 78 48
4.7055 -4.52382 14.3173 141 136 91
9.38331 -1.11404 15.4251 150 140 118
6.60702 -4.28312 12.342 114 12 9
-4.33334 -0.650016 14.0981 97 50 28
9.63927 -4.79362 13.5093 150 148 96
5.90515 2.92286 17.128 170 150 142
5.78616 -4.90293 13.6172 124 16 12
7.05372 -3.66867 11.8894 169 148 142
7.08487 0.321068 13.9049 152 120 108
8.60548 1.97648 15.4389 122 93 80
5.95401 0.691389 14.7063 142 96 73
8.21201 -4.65918 12.9405 92 62 42
-5.37277 0.57178 15.959 163 115 92
0.659938 2.47995 13.2311 100 38 38
-1.06068 -1.93251 15.6032 146 108 89
8.54251 -3.46853 12.7277 142 114 106
-4.53908 0.0298185 15.6911 146 99 79
8.28188 0.892217 15.0642 170 150 144
7.03634 -1.58216 13.9392 24 15 14
7.14455 -5.39372 13.2594 12 8 9
-1.60971 -0.835532 15.5671 136 86 68
6.96557 1.73357 14.8261 172 150 144
-5.87987 1.45592 12.7549 160 136 120
6.13593 2.41887 16.481 166 138 128
-3.05932 0.0816184 16.8728 83 34 20
0.638904 3.55931 14.1781 166 138 135
-5.73063 0.70663 16.314 164 117 91
-1.49754 -3.21267 15.8523 114 58 41
7.37662 -3.49106 12.1717 177 156 149
6.0483 -1.5572 15.8576 160 148 129
8.70279 0.07762 15.1494 88 69 54
0.452228 3.04812 14.0931 71 32 24
-2.75169 -2.05279 16.5166 71 28 10
0.228245 1.37261 12.2746 144 118 108
-3.63883 -0.838863 20.6802 166 110 94
6.99775 -3.27516 12.4373 180 164 160
0.327708 0.676722 14.3584 136 30 21
5.08083 -1.01193 15.7103 164 132 108
7.91541 -3.29769 12.4053 94 106 91
6.13322 0.973998 14.6463 188 164 158
9.30076 0.238875 17.1056 142 122 104
5.31693 -4.29637 12.8807 114 10 6
4.96049 -0.537588 17.029 125 78 49
7.24113 -6.47359 13.4079 110 70 34
0.210029 -3.83947 18.3532 144 141 90
5.22688 -0.293418 16.7305 52 34 20
7.08602 -2.06907 13.7651 94 34 16
8.47239 -3.19574 12.6731 146 132 111
7.07169 -0.606108 14.5173 126 101 88
7.30674 -3.87645 11.513 111 74 44
6.09951 -3.16414 10.8486 148 125 117
9.09254 -4.14423 13.0869 150 140 113
5.83203 -1.64969 15.5722 100 71 48
5.27445 -3.31899 12.7936 158 126 118
-2.86791 -0.523537 13.5759 128 84 68
-3.87798 -2.11838 16.7758 86 41 20
-2.05606 -3.73903 15.7229 172 110 82
4.95384 -4.00442 14.295 146 124 108
6.79642 -5.41101 13.0414 130 10 12
8.39111 -3.07253 12.636 115 83 52
-4.79606 -3.50374 15.3449 158 100 79
8.94226 -4.40302 13.4086 108 73 41
1.67724 1.6543 12.5955 124 22 20
8.29519 -3.39293 12.574 158 139 130
-2.3215 -4.38526 16.2554 144 141 91
0.279557 1.46411 12.5875 140 112 104
7.65693 -3.89539 11.6094 15 13 8
-0.13938 1.17646 16.3054 100 54 32
-2.01071 -1.22841 14.8272 142 90 76
-3.8838 -1.59763 14.6698 136 96 78
2.32722 0.84504 13.5213 162 146 128
6.97031 -0.414722 14.5331 138 114 100
8.78915 -4.15879 12.8715 111 76 46
3.75242 -0.0859138 5.9331 150 123 108
6.2441 -1.00234 14.1582 176 114 82
-1.05656 -1.10232 15.6851 152 113 98
-0.687903 -4.01775 15.9961 32 15 6
1.60976 2.00005 12.6446 127 110 106
1.95071 0.244974 14.2961 162 148 126
8.81985 2.11101 15.7471 150 127 114
6.37692 1.74563 14.8699 126 58 56
2.47702 0.783732 14.2139 162 146 130
7.60955 -1.66025 14.0885 150 76 43
4.64272 -4.47606 14.3002 141 137 90
5.65005 -3.161 15.7923 148 144 97
5.73664 -2.57345 15.5333 122 61 34
-6.26385 1.57292 16.3199 94 64 36
6.88461 -4.03995 11.7102 110 78 60
-5.879 0.476138 15.7807 162 132 107
0.335144 1.19328 13.0649 130 25 18
-1.85752 -3.69958 15.3666 176 110 85
-2.86828 0.806455 16.2762 90 41 27
0.759324 0.365748 17.8339 132 102 68
8.1893 -2.86352 12.9187 146 144 94
5.53302 -6.00739 15.0725 151 146 98
8.57673 2.03002 15.2653 132 104 90
8.173 -2.89152 12.9514 148 144 98
-4.21515 -0.234195 13.8078 182 132 109
9.09269 -3.58925 12.9375 136 135 86
8.65859 -2.37978 16.2015 74 50 49
7.17924 -3.41151 12.3284 166 144 137
6.19674 -5.35489 13.1167 154 138 107
6.24968 3.0229 16.7869 178 158 152
-0.136559 0.968291 16.7601 113 64 42
6.48009 2.27142 16.2737 162 130 120
0.365559 1.29741 13.1803 138 23 18
5.10751 1.15206 15.8433 102 58 56
-3.81125 -2.25159 16.0111 120 75 50
-5.85059 2.93091 13.1758 128 14 15
7.11675 -3.42972 12.2244 169 148 141
-3.951 1.62863 13.0052 120 73 50
-4.01977 -2.42927 15.8163 128 90 62
2.06445 1.79976 12.7845 160 26 28
6.24908 -1.24415 16.6315 90 68 32
5.84266 -0.394941 15.4252 94 63 42
4.82271 -4.22475 13.0631 152 129 114
-6.50059 -0.430584 12.4169 164 148 128
8.12165 -4.6608 13.0314 30 25 17
-4.48963 1.70028 15.8703 96 47 27
-0.310439 1.89286 18.3105 112 77 56
7.87511 2.46164 15.3638 164 139 130
8.72585 -1.88924 14.8442 130 116 78
-5.24837 -2.15781 16.2411 139 89 66
0.222399 1.65211 11.8837 156 130 116
-6.11354 3.50978 12.1535 130 15 17
-5.85601 3.39987 12.959 128 13 14
-1.5226 -5.75389 16.8254 148 142 90
-4.25691 1.23421 14.5511 128 76 57
14.5395 -2.19323 24.4866 148 138 115
8.80014 1.28958 14.8664 152 138 122
-4.22979 0.490243 12.1227 168 122 96
-1.45058 -5.47088 16.2736 148 143 92
3.66129 0.745028 16.6664 144 128 106
-1.94697 2.29851 18.5415 162 132 122
3.11523 2.17617 13.3534 152 134 120
0.00727173 0.162122 18.7891 162 122 98
-0.0139408 -0.195536 15.4751 164 124 104
4.1983 -8.46422 21.7192 141 136 85
-5.9632 2.86411 13.6583 134 108 94
4.71668 -4.63086 13.6762 96 66 32
-2.77947 0.903076 16.6698 88 36 22
-6.42507 3.65881 12.6542 131 16 19
-5.51763 -2.44213 14.0292 70 34 19
-4.13631 -2.03558 15.2726 134 94 74
-5.51578 -2.36407 14.6532 50 21 14
-4.45591 0.0442638 15.6516 144 96 76
-1.46379 0.0979029 16.6718 198 152 129
8.06821 -0.196994 14.7529 26 9 2
7.9997 1.46944 14.7482 43 22 9
8.18042 0.178908 14.8429 142 122 104
7.24619 -1.6611 13.9825 140 91 73
7.13542 -1.1731 14.0466 126 100 103
7.41244 1.06113 14.5749 173 153 147
6.7837 1.62662 14.7179 90 100 91
7.17794 -0.295452 14.8046 68 30 14
7.42568 -0.430068 14.6253 92 62 46
6.47452 0.721784 14.3895 76 32 14
7.2208 1.00764 14.4229 172 152 147
6.91465 0.159724 13.9597 162 138 124
7.14403 -0.612546 14.5964 88 44 22
6.89559 0.365431 14.5249 158 124 106
8.03452 1.02804 14.4145 178 154 146
7.07546 0.768848 14.55 86 42 25
8.84894 1.6579 15.5389 164 140 124
7.43696 -1.47126 14.237 48 22 16
6.81137 0.641865 14.627 94 50 28
-5.53278 -1.21318 15.1198 49 12 6
7.04656 0.591243 14.7091 150 119 107
-5.29875 1.90659 15.7968 116 66 40
7.07377 0.571733 14.7253 152 122 109
7.60483 0.134772 14.906 160 135 120
7.87403 1.60434 14.976 176 154 147
7.52103 -1.68444 14.1064 102 34 17
7.87977 -1.44493 14.3923 140 70 38
-6.23797 1.26271 12.1662 82 62 66
-5.31861 -2.60389 14.4465 31 8 5
8.02569 1.05952 14.8496 144 113 96
6.57959 0.964792 14.4426 114 70 48
-6.57578 1.04403 11.6934 22 18 35
8.08725 2.02609 14.936 136 110 93
5.61683 -3.98744 12.4079 110 52 31
-5.91005 -2.95297 14.304 116 69 44
6.44093 0.900166 14.5155 154 109 93
7.47571 -0.0164417 15.1244 110 70 50
7.78632 -1.64524 14.1557 166 101 76
7.57417 -1.36283 14.1846 150 88 61
7.90114 1.47272 14.8966 176 153 144
7.9696 1.47415 15.0307 174 152 144
7.86585 1.85076 15.1603 171 150 146
7.88426 0.40208 14.9692 114 81 66
7.75811 -0.38235 15.3503 124 79 58
1.19603 0.654627 13.151 81 40 24
7.0179 0.509755 14.3042 150 120 108
8.56218 2.07414 15.4437 152 128 112
-6.42037 -3.12416 16.7037 86 50 30
7.85668 0.834891 15.2952 86 45 26
-2.96819 1.0228 17.7061 100 51 34
-6.12227 -2.7493 14.5384 76 40 25
8.47259 -0.775001 14.9425 158 146 128
8.12415 0.690823 14.599 102 71 36
8.1707 0.764516 14.6125 118 86 63
7.33775 2.82953 16.2263 159 138 134
-5.84555 -3.04987 14.3429 42 18 6
-3.48358 -1.678 15.6398 98 58 30
-7.71083 -0.910642 13.4406 128 24 16
-6.45106 -0.825929 11.2437 120 19 14
-3.99572 -2.23198 15.4766 134 96 70
8.15524 -0.0222125 14.9362 22 12 8
-6.27989 1.21348 12.1045 44 38 48
7.83306 2.38881 15.0607 160 135 126
-6.05777 1.44906 11.6684 118 22 25
-6.22863 -2.7882 14.7981 75 39 22
-1.10316 1.85824 17.1228 124 76 52
5.81153 0.220372 15.376 136 114 101
-7.05529 -1.70853 10.167 162 148 124
-7.5718 -4.46271 31.318 93 73 42
-6.25596 -2.66889 14.8357 73 40 26
-6.78325 0.905783 12.0383 120 20 24
-1.93081 -1.42631 14.7479 99 52 28
6.80666 2.50401 14.9389 166 144 138
-5.4504 -2.83033 14.2422 58 31 22
-4.77842 -2.14238 14.9914 140 91 71
-5.7518 -2.61389 14.159 64 30 18
-4.4511 -1.88974 15.1822 150 108 90
-2.13457 0.981786 16.1024 186 136 112
6.46702 -1.69328 13.2111 92 82 82
0.512564 1.04589 12.9165 104 22 17
6.52595 1.47403 14.6136 100 102 90
5.27975 2.07195 15.4837 164 139 133
-0.190627 1.92949 14.0023 156 130 118
-6.25349 0.98913 12.2672 84 60 60
-6.23102 1.30468 12.1854 98 48 49
-8.78513 -3.10446 16.2252 124 120 76
-8.70312 -2.795 16.3622 158 146 124
-15.7354 -4.13417 30.0507 158 144 124
-8.3737 -2.97496 15.9977 120 116 72
-5.36208 1.32116 15.878 184 138 115
-10.4139 -3.08385 19.6048 158 146 124
-12.2662 -3.91148 22.5398 124 120 75
-7.54365 -2.63605 15.6935 160 150 127
-7.66192 1.179 11.1062 152 103 48
-7.78521 1.39795 11.2768 162 142 131
-13.7887 -4.03423 26.641 118 116 72
-11.5845 -3.45568 23.7451 159 146 124
-14.2868 -4.57903 28.5592 126 123 78
7.99 -1.70349 13.9089 176 146 128
7.80035 2.4982 15.4003 162 138 131
7.6572 0.584392 14.773 124 93 74
7.72666 0.852152 15.3274 90 46 26
6.33432 2.31923 13.7102 166 146 140
8.80322 1.88976 15.4129 164 148 133
-5.48836 -3.88609 14.6933 58 31 14
0.494846 -0.316781 17.8787 146 137 113
8.97403 0.820249 15.4475 165 148 138
9.95783 1.70366 18.4976 168 147 136
8.32496 -1.80403 13.9584 136 108 75
8.459 0.0065377 15.1842 34 22 16
8.19232 -0.0424489 14.93 27 14 12
7.19725 -1.49062 14.1388 26 16 15
7.3412 -1.45636 14.0153 88 36 18
7.37282 -1.08726 14.2992 98 72 70
8.40377 2.01239 15.1278 140 110 92
6.90567 -1.59087 12.6171 168 98 68
7.18248 -0.234403 14.6655 120 70 44
8.12858 -2.17861 13.7932 141 138 94
9.33979 0.293573 15.7856 110 78 41
8.12044 0.80872 14.3113 172 154 144
-6.24864 -0.228434 11.048 158 140 140
8.46553 -3.02695 14.9349 37 26 19
-5.6235 -3.10059 15.1931 140 88 72
-1.39452 -4.03466 15.2512 154 98 74
6.94407 -6.15307 13.0792 216 167 142
6.94137 -6.12046 13.0107 218 168 143
-0.160743 -2.53411 15.8893 25 10 2
-7.14798 2.25481 12.2322 122 18 17
-5.98354 1.78585 12.7415 122 17 18
5.09283 -2.22208 14.9787 170 138 118
-6.74403 2.60738 12.805 104 8 10
-5.98994 1.06201 13.7148 160 140 124
9.13091 0.275693 15.694 103 62 30
9.24837 0.0862774 15.8952 120 74 42
5.20166 -0.726222 16.6287 71 52 44
-7.38001 2.96426 13.1419 146 16 18
5.30541 -1.57516 15.6339 66 22 3
-2.35388 -0.788122 14.7866 164 112 94
5.40969 -1.73141 15.5885 158 128 112
6.68217 -1.60287 16.6929 158 148 122
-6.23358 -0.735325 11.3986 114 18 10
1.2772 0.63821 17.671 150 136 115
1.30728 0.594229 17.5458 148 134 114
-6.2149 -0.754226 11.4131 118 22 13
8.7004 1.41908 15.0687 169 148 130
5.61766 -0.340163 15.6269 109 70 47
8.14296 -0.862454 14.6732 154 128 110
5.36551 0.748976 15.5841 180 150 142
6.84669 -3.18083 12.3073 76 62 56
7.80309 -1.97705 14.1991 156 85 53
-0.538516 -1.64277 16.2983 26 4 2
9.27247 -0.242349 16.0964 94 60 26
6.23877 1.4341 15.5849 238 218 212
-6.38987 2.38747 13.0379 155 98 34
7.37325 -5.83642 13.2528 148 146 94
5.21119 -3.75933 13.3887 158 131 120
-6.45411 1.18479 11.7873 34 29 39
8.95369 -2.6464 16.2838 88 70 69
-6.87214 2.66991 13.3786 150 124 104
-2.09992 -4.0297 15.9993 170 112 84
8.80263 0.0931795 15.5931 142 121 100
-0.88312 -3.6044 15.4117 108 67 50
8.15185 -3.25673 12.4227 100 103 90
7.16476 -2.11246 13.9007 94 36 17
1.38446 2.95901 14.1852 50 16 16
7.14572 -2.4892 14.0873 146 118 108
8.57546 -4.29481 12.8464 141 118 96
7.3869 -5.54337 13.1152 122 94 56
8.85281 -2.39919 15.8183 150 140 96
9.02712 -4.08611 12.9802 152 140 114
7.0198 -0.670812 14.4952 116 90 75
8.28614 0.201966 15.0443 136 114 95
-2.71451 -0.806051 14.2093 112 64 34
6.69127 0.86799 14.3948 114 66 40
5.25745 -0.42148 16.5207 50 28 16
-4.30354 0.235234 14.9725 147 100 80
0.974222 1.86812 13.163 126 112 111
6.24248 -2.4256 15.9589 53 19 8
5.13872 -1.94574 15.2226 122 94 78
8.89845 -1.24339 16.2661 150 138 118
8.86156 -3.75018 12.7192 98 93 68
8.03398 2.0767 15.0769 158 130 120
-0.454003 2.30778 14.7054 157 129 117
6.77335 -6.16882 13.2663 101 68 28
6.54026 -3.30072 12.2752 144 122 116
7.08669 1.48221 14.6509 181 159 152
-5.96772 0.0253421 12.5062 138 94 29
9.68635 -1.56949 16.6748 150 140 116
-6.14859 -1.06925 15.3559 105 64 38
6.40867 -0.605334 15.6397 176 112 77
8.38575 -0.155049 14.9142 137 118 94
8.21276 -3.03331 14.9134 36 18 12
-0.961859 -2.64087 15.6062 138 94 73
4.87442 -3.7244 14.2456 104 82 42
-6.1553 -1.41659 11.1662 162 147 122
-1.93337 -4.42084 15.6823 53 24 13
-6.75484 3.09307 13.0634 124 14 14
9.27028 0.450239 15.3509 150 136 115
-1.6776 -3.40077 16.333 156 92 72
-6.32862 -0.912777 10.9282 109 31 15
-1.01505 -1.14841 15.5919 148 110 96
4.83107 -4.20062 14.8221 141 138 90
7.92631 -4.64891 12.4613 111 79 55
-5.47308 0.0795775 12.6783 155 104 46
6.52906 -4.29638 12.2847 120 8 8
-0.625719 -3.92127 15.5072 26 9 0
7.94254 1.79144 14.2821 179 146 108
-6.49137 0.509701 11.5205 61 2 0
-0.982488 -4.44453 15.6694 24 12 3
-3.16837 -2.07842 17.2335 108 67 39
6.94718 -2.91333 12.4364 160 137 130
8.46554 -2.1799 14.9743 145 108 78
7.59099 -4.99227 12.8444 28 27 24
9.59487 -5.34194 14.1947 102 79 34
8.24139 -3.90043 12.1705 124 77 51
7.69455 -5.20213 13.1896 90 80 61
6.447 -4.19801 11.9426 121 10 10
-6.33308 -0.903239 11.2458 110 44 26
-3.13038 -1.55614 13.6214 94 60 24
5.95575 -2.32694 15.727 46 18 10
8.93729 -1.36814 15.2081 149 140 118
5.44272 -5.40654 14.9756 124 104 86
7.07286 -3.06103 12.4094 154 134 128
0.679007 0.621965 13.9409 130 28 18
-2.27704 1.67121 16.3548 164 111 81
-5.95575 -2.72201 14.3868 82 45 27
-2.33585 1.68304 16.5213 160 108 78
8.97323 -4.39774 12.7913 100 65 28
4.44134 -4.12575 13.9304 140 136 87
9.1393 -5.48602 14.6694 160 133 111
5.87408 0.177304 15.5602 141 118 105
6.92622 0.475384 15.0997 146 104 85
6.24338 -0.611329 14.6111 176 108 76
6.56391 -1.78304 16.753 94 78 46
9.05008 1.76626 15.6395 142 124 109
6.05714 2.79463 16.188 173 150 144
-6.32285 0.538427 11.5965 119 11 14
-2.16311 -3.58368 15.5447 156 105 68
6.74705 -1.61679 14.1465 14 9 11
9.10904 -5.53819 14.7747 156 132 108
6.1779 -5.9406 15.3209 150 143 92
-0.353243 1.56364 15.5497 107 64 38
-0.749053 -3.74051 15.2377 32 12 2
-6.82838 2.74517 12.5783 127 12 12
14.3914 -2.5082 23.9951 102 102 56
8.47069 1.74878 15.2198 170 141 114
7.47595 -1.50923 13.9958 138 77 48
7.82559 -2.31874 13.9704 60 37 36
-0.542355 0.66224 16.5037 144 106 88
6.25792 -0.24111 17.4717 128 104 86
4.67889 -5.83275 14.9586 144 140 90
-4.6655 -2.97638 17.3349 130 98 60
6.00993 -5.92418 15.6815 142 122 102
-3.23063 -1.51049 13.2491 126 84 58
1.23293 1.84155 12.7542 136 28 26
-6.83819 1.55922 12.1403 100 32 34
5.61068 0.284247 14.4695 124 92 73
-6.74252 0.290256 12.0007 110 8 8
5.80021 1.99877 15.4609 182 154 144
-1.13636 0.104821 15.6704 178 131 109
9.89202 -3.54682 17.1846 146 143 93
1.54629 0.758298 19.9638 160 143 126
-6.24605 0.0184862 11.0735 119 12 12
-2.62913 -1.35958 14.3061 143 94 70
5.35693 0.257288 17.0526 106 69 41
6.69242 -3.74701 11.9512 55 40 41
8.80602 -3.4402 12.9473 66 30 19
7.95527 -0.356865 15.7059 20 15 14
8.60669 -0.832327 15.6445 29 20 12
5.80705 -1.89619 14.3119 44 68 45
6.46068 -2.29183 17.2023 42 62 40
-6.10798 -0.176866 11.9572 163 147 128
-6.78336 3.79198 12.8756 132 14 17
-7.13825 2.21906 12.243 120 18 20
6.60011 -0.539271 14.2343 182 152 130
-7.12703 2.00679 12.4124 45 24 32
7.35451 -2.78276 14.6549 112 98 89
6.02751 -3.10946 15.1669 102 44 20
-6.6818 2.68882 12.5142 116 11 10
7.75801 -2.106 14.6582 11 7 5
-6.44916 -2.1684 14.9208 160 148 125
5.62132 -2.8239 14.1098 81 33 14
7.24665 -1.81821 18.1874 147 124 104
-1.48598 -3.66455 14.9974 177 102 75
-4.40677 1.67513 15.5655 96 46 26
-6.72134 1.64191 13.2265 122 16 13
5.32994 -3.1862 14.5415 146 142 92
-3.78274 0.843709 16.3621 154 112 100
-6.69421 2.74421 12.9601 148 120 102
8.711 -1.59646 14.7435 174 149 128
8.16768 -3.68458 12.0886 118 70 42
8.21763 -3.47658 12.2865 160 140 130
7.1832 -4.72169 12.8803 10 10 10
8.74446 -3.33445 13.1373 145 124 104
6.60101 -2.26914 14.3442 106 32 20
7.72353 -2.56423 14.6895 49 24 18
6.58848 -2.24594 14.0081 144 45 28
-6.00741 -3.54024 15.1816 164 117 88
-5.89102 2.08025 12.9851 155 135 118
6.57022 -2.23678 13.9671 150 54 36
8.14303 -2.15779 15.3379 22 10 6
7.07656 -3.64292 12.3876 156 136 128
-6.98326 -1.13831 10.9697 32 34 63
6.44176 -1.42601 14.405 164 133 122
6.14208 -1.3755 14.4969 158 143 120
6.67737 -2.10954 17.2878 68 55 28
6.98959 -2.21301 18.5897 70 56 29
8.89913 -0.834534 16.0436 158 144 117
7.83685 -3.73859 12.3847 164 142 134
5.87068 -2.86137 12.8385 152 146 99
5.40506 -0.193974 16.6126 146 119 98
5.43961 -0.15316 16.5017 146 118 99
6.21461 -0.431764 15.1635 172 109 78
7.43926 -5.10598 12.7693 38 30 24
0.257665 2.87218 14.2791 142 110 100
-3.83014 -1.84497 13.9726 150 108 89
6.05293 -1.11821 14.0162 189 120 81
8.76173 -3.75604 12.7989 96 96 76
5.54973 -5.26373 15.0696 148 129 111
8.04986 -3.19124 12.5645 100 98 82
5.00309 -3.47697 22.8817 104 103 64
6.3513 -0.981383 15.1083 182 103 70
1.91534 1.86439 13.0912 132 114 112
7.12171 -5.73738 13.2997 109 62 36
6.28484 -0.519151 15.1061 159 90 56
6.20162 -3.57643 15.3022 166 138 130
6.5806 -3.45429 12.0804 156 136 130
-4.80568 -2.86452 14.9472 158 102 86
5.06429 -5.59946 14.9016 101 72 36
-7.03931 2.87973 12.8951 129 12 13
-2.94284 -0.96165 13.4446 124 74 47
4.9975 -4.33812 14.3207 154 131 115
5.72831 0.21487 15.7186 142 113 98
-6.73238 -1.14898 10.6302 22 27 65
7.85055 -2.02246 14.8887 12 4 2
6.30011 -4.04938 11.9171 122 72 52
9.81896 -4.91585 14.0554 148 144 92
8.31803 -3.63305 17.5253 128 78 54
7.40808 -0.656795 14.0597 84 52 28
5.75982 -1.59176 15.4442 119 87 67
8.66753 -4.05442 12.5225 106 68 40
8.32374 -2.45179 13.8413 144 140 90
8.6928 -5.1269 13.8986 137 110 88
-6.8548 -1.17471 10.9753 20 25 62
-2.47797 1.88816 16.4237 164 133 122
8.12795 -4.1625 12.4916 15 10 6
8.19174 -5.29879 13.8057 154 144 107
5.60662 -2.86058 11.08 168 142 136
-7.15262 1.21401 11.5279 130 26 16
8.92019 -1.18407 16.527 152 134 112
7.77834 -3.19154 12.327 160 140 134
0.340741 -2.74531 15.882 135 132 84
6.33806 -3.53715 12.1669 161 136 127
4.91566 0.205182 16.2331 167 141 125
8.71025 -3.76678 12.5202 98 96 76
7.44492 -3.28458 12.8856 140 120 114
-7.65051 1.18841 12.1513 146 93 40
-6.78538 3.24597 13.6164 68 6 6
-6.76981 3.116 13.7194 116 13 13
1.1968 0.699173 13.1588 94 38 19
5.80055 -6.28015 14.6452 150 145 92
8.19329 -1.63296 14.7123 175 143 122
7.0659 -3.00072 11.8035 152 130 123
7.71562 -5.35633 13.282 140 129 84
6.74983 -0.153704 15.7335 121 96 82
7.51569 0.911521 14.5638 182 152 142
1.80012 0.518307 16.658 163 147 126
9.31265 -5.19021 14.0028 160 135 115
-1.86019 -3.71387 15.3799 176 112 87
6.55779 -0.383454 15.2436 150 115 94
6.97543 -5.06952 12.7928 11 8 8
6.59394 -3.93902 11.5026 120 74 44
-3.71435 -1.39356 13.9975 122 77 54
-5.42797 -2.72649 13.9991 40 14 6
7.15748 -3.12656 12.1446 142 122 116
5.70085 -1.37512 15.6986 138 107 87
7.59789 -3.48958 12.658 182 161 158
0.620604 0.742319 16.6699 130 30 20
6.94122 -3.25563 13.7528 151 128 119
-7.51347 3.21153 13.2135 160 122 107
7.24547 3.47769 21.5286 174 152 146
1.34376 0.940929 17.0831 126 25 18
-4.67738 -3.63789 15.8433 150 146 93
-4.93403 -3.35059 14.3106 157 104 83
-7.52375 3.2914 13.2078 162 126 110
6.46611 0.278956 16.4889 141 116 104
0.692838 0.0990438 18.2554 144 132 108
7.99828 -1.91599 14.8448 162 88 58
-7.84322 3.52508 13.869 162 124 110
-0.252317 -1.46371 12.901 35 11 4
8.53749 1.59385 14.3307 144 126 112
-2.50803 1.6995 16.3911 124 80 62
8.94031 -5.05527 14.0247 132 103 82
5.31141 0.000128068 16.2927 92 55 26
8.37876 -4.85498 12.8316 153 126 104
-2.56414 -0.424965 13.0649 130 85 71
-3.55638 -0.493958 14.345 173 115 94
5.11464 -3.6387 13.3698 160 132 120
2.87742 2.24465 11.1788 164 144 134
-4.44057 -3.56418 15.2401 152 146 94
-1.06268 -0.573824 15.7768 174 133 116
4.93923 1.43135 17.4205 102 83 63
-0.489734 -0.761036 16.5468 168 126 108
7.18264 -4.90635 13.3881 12 10 9
0.586315 -0.0144675 20.512 143 132 108
-2.11421 -3.48608 15.2112 156 111 71
7.27102 -3.89308 11.7843 134 90 64
5.69294 -6.2575 15.6989 146 142 89
6.14248 -0.838122 14.8033 126 98 62
4.98719 -3.33999 13.5631 154 140 101
7.26341 -3.21997 12.295 145 125 120
-5.72749 0.283608 11.8411 146 100 40
-6.68569 2.08436 12.6053 124 14 12
1.04447 1.81041 13.6846 95 78 62
8.24228 -5.6346 14.3809 154 142 96
4.49996 -4.91266 13.741 138 134 84
-4.52696 -1.71722 14.8024 138 97 69
1.05956 3.26728 14.0538 114 85 82
1.33771 0.783672 12.8644 109 32 21
-6.5891 3.96143 13.4236 160 132 128
12.1565 -2.16254 21.8406 148 138 114
8.46906 -2.76662 15.458 110 46 34
-6.26815 -1.25466 10.8744 162 148 126
-9.78848 -2.66939 19.4133 160 148 125
-1.45114 1.03758 16.8789 206 162 138
-7.18315 2.43135 12.7127 164 104 34
-5.32016 2.14286 15.278 152 116 98
-2.02879 2.3194 16.5338 166 138 127
4.74055 -1.09578 16.1472 154 142 122
6.68164 0.302027 20.3514 140 115 102
5.81921 -4.98276 13.5327 126 59 43
8.29001 0.417837 15.04 122 93 71
8.71286 1.14728 14.4139 152 139 122
-0.0678499 -0.855175 17.2667 140 110 79
8.9281 -1.00765 15.5504 150 138 116
-3.90855 -2.79069 16.0637 142 125 82
-0.484239 -0.733094 18.7942 150 113 88
0.888537 2.43657 13.2161 156 24 23
8.88868 -1.22817 15.7797 132 80 56
-4.74654 -2.54248 14.9102 121 72 52
-2.27189 0.0137211 17.2974 192 146 122
-2.94741 -1.02175 13.7311 127 77 52
5.22467 -6.23406 15.1602 146 142 93
6.5611 -4.75634 11.3839 12 9 8
-3.37386 0.821257 14.7703 158 116 101
4.55251 -7.13272 17.5273 144 142 90
-4.7856 -0.900019 14.3734 140 94 74
-6.65642 0.0110631 10.975 26 22 60
8.94232 -4.81318 13.5517 149 127 105
0.853268 1.46855 12.9898 152 24 21
7.20304 -5.0688 13.6903 47 28 16
8.09042 -2.81505 14.9179 68 18 8
6.18424 -0.229843 15.0156 18 12 12
5.60967 -1.60273 15.4802 49 10 2
-6.69994 3.77778 12.7136 134 16 18
6.50808 2.0232 14.9578 172 147 140
-6.26155 -2.29936 14.7937 160 146 124
-1.44096 -2.22961 15.7477 166 124 102
7.08333 -4.27969 11.957 10 10 10
6.17806 0.975057 14.9361 206 184 178
-1.41983 -3.55972 15.5248 166 98 74
7.94018 -0.842062 14.2452 158 132 114
8.08319 -2.15425 14.1767 164 127 102
-6.66023 1.15951 11.8543 20 16 31
0.0686693 -3.34536 16.234 145 140 91
-5.65041 -1.00182 14.911 54 19 10
-3.30484 -0.721516 13.7835 188 129 109
5.65833 -3.33083 15.1214 145 142 91
-2.06889 1.17211 16.4059 184 133 111
4.96294 -5.07867 14.2712 146 130 110
5.78697 -3.22421 12.6422 170 142 134
6.79897 -3.54244 12.0884 157 140 136
8.20774 -3.73885 12.2379 102 58 32
6.11781 -2.40071 15.7227 63 8 6
6.63055 0.276931 15.1504 100 59 30
8.63565 -3.27981 12.9729 144 124 106
4.97225 -1.35864 16.1172 156 143 122
-1.19194 -4.28685 15.2687 101 62 40
6.62633 -1.93785 16.1706 156 144 121
5.26418 -0.453343 16.6382 34 18 10
5.90159 1.11854 15.0227 158 118 102
0.0501926 -2.31921 15.9336 90 70 34
8.23385 1.77812 15.0737 185 151 110
9.41617 -4.6605 13.401 98 65 24
0.244189 1.78327 13.0073 156 127 118
9.23582 0.21507 15.5816 101 62 30
5.03222 -0.833239 16.4578 150 138 116
8.98083 -5.81192 15.4174 130 102 80
0.0505592 -2.15959 15.8965 90 67 32
5.31006 -3.48631 14.5472 103 69 32
-3.57028 -2.05202 16.695 135 90 66
-3.0038 -2.49352 17.2081 156 146 119
5.83108 -0.193423 16.7106 133 104 88
6.91125 -3.08247 12.2505 156 136 129
5.72207 0.681118 14.7102 188 144 126
8.64549 -1.63933 14.2248 150 140 115
-6.79157 3.70093 14.2458 126 13 14
3.81425 -1.01807 17.0915 150 140 116
8.14461 1.84703 14.799 178 141 105
0.943771 0.599027 18.8436 92 68 30
4.65994 -0.224503 16.8853 150 140 115
7.39924 -0.228903 15.19 130 76 52
6.58614 -2.03885 15.6062 128 116 83
10.3863 1.24996 18.8051 151 139 124
-5.04216 -3.67402 14.6265 42 24 14
8.58374 2.0574 15.0613 154 132 122
6.49135 -2.2455 15.6908 132 128 82
4.73631 -4.13498 14.4993 142 138 91
-3.75058 -2.43202 16.3693 125 85 56
-6.73263 1.91719 11.9721 107 35 33
-4.32721 2.78786 15.9931 160 134 124
-6.17972 -0.196476 11.4887 116 12 10
7.72869 -3.75859 11.9724 123 85 64
5.24805 0.633289 15.566 168 134 124
6.90403 -3.86841 11.5474 116 72 44
-6.63347 -3.10012 14.8631 144 138 88
5.98866 -5.96538 13.6256 152 147 94
9.07766 -5.79623 14.38 154 148 97
7.03167 -6.20754 12.9112 157 103 70
-5.41329 0.571347 16.0107 152 103 80
8.68494 -5.94498 15.5214 151 138 94
6.78767 2.3351 14.7858 142 108 96
8.05877 -0.0252706 15.186 117 96 74
-6.02155 1.34818 12.4195 124 16 14
-3.29506 -1.42788 13.9214 152 98 70
7.7561 -1.87025 13.8183 165 86 52
-4.35767 -1.04546 14.3621 109 63 38
-6.62453 1.77777 12.1712 112 28 24
-0.919401 -5.03065 16.625 146 145 92
8.32863 -2.50581 15.278 72 46 44
-3.95479 -2.3867 16.7668 124 86 58
8.31115 -5.55928 14.3061 142 129 86
8.26346 1.67289 14.9844 167 136 110
6.98259 -4.01098 11.7117 100 70 46
6.18084 2.28553 16.6225 159 123 110
-5.89637 1.64744 12.3689 108 36 33
-6.41748 0.920427 17.4431 156 107 82
-5.97138 3.67507 13.2024 159 130 124
7.77943 -4.99924 12.9347 100 88 65
9.16411 -4.00983 12.9299 134 132 82
-5.31178 0.829063 15.8627 178 132 110
7.30777 -0.404069 14.6874 135 86 63
-4.92717 -3.07436 14.0098 163 106 88
6.72312 -2.2745 16.7906 126 124 76
0.506923 -2.17236 16.0618 156 144 121
7.15273 2.69112 17.4614 137 100 83
-1.03365 -1.86436 16.0557 132 89 70
-5.76416 3.17401 13.2222 126 16 14
-6.76692 1.71216 12.1679 125 16 19
6.92802 -4.20266 11.9332 12 10 10
4.26549 -2.78701 21.3503 79 81 42
9.46866 -0.642231 17.2478 90 66 29
-3.85975 -2.83466 18.6187 124 120 73
5.37255 0.302271 15.0247 94 49 24
-3.00103 0.933869 16.5122 100 52 36
-6.4957 -2.30808 14.3771 159 146 122
-7.55661 -2.3617 15.3829 160 147 122
-7.45573 -2.82548 15.8686 128 124 76
7.80468 -2.34905 14.0937 51 28 28
