ply
format ascii 1.0
element vertex 1307
property float x
property float y
property float z
property uchar red
property uchar green
property uchar blue
end_header
-0.458459 0.363014 7.95665 128 147 126
-0.314338 -2.05287 7.22716 110 82 58
-0.453745 0.0174703 7.91034 115 126 35
-0.314803 2.63485 9.10668 123 140 122
-0.301421 2.36263 8.92398 126 144 114
-0.459076 2.72814 9.09272 94 109 78
-0.337442 1.68758 8.52105 132 144 125
-1.34457 2.87721 9.6026 130 144 124
-1.49569 1.12556 8.38966 46 30 21
-0.0147778 0.396353 8.1364 42 68 18
0.066396 -2.1339 7.39672 206 162 114
-0.430688 -0.0578879 7.90233 124 136 96
-1.27509 1.0297 8.27224 102 92 25
-0.465853 0.0359528 7.90398 116 128 33
-0.34372 0.209893 7.98308 58 13 8
-0.381363 -1.38455 7.29208 164 127 95
-1.04766 -0.538704 7.69153 220 172 119
-0.79559 1.85688 8.60474 138 42 19
-0.810568 1.46073 8.37213 94 39 28
-0.902263 1.3582 8.32156 132 146 124
0.00622001 0.0480366 8.13384 32 56 17
-0.914307 1.02235 8.14965 131 148 126
-0.556034 -0.334871 7.75498 128 142 124
-0.0737855 2.62299 9.20792 124 140 122
-0.717913 3.95993 8.62521 197 175 154
-0.787657 1.45452 8.33061 107 67 58
-1.17129 0.382151 7.98999 72 108 36
-0.818803 3.89668 8.81183 197 176 158
-1.35987 1.23738 8.35068 135 152 134
-0.428819 -1.1295 7.39145 26 0 0
-0.159619 0.585102 8.10645 123 136 121
-0.468342 -1.63774 7.21575 200 118 88
0.040177 0.836723 8.30573 128 118 102
-0.00430318 0.752618 8.25552 126 136 121
-1.3098 0.937128 8.21389 144 139 59
0.388608 0.105091 8.41325 106 70 61
-1.58883 -0.834357 7.78558 140 132 120
-0.782339 1.75648 8.50002 108 38 24
-1.31842 1.40782 8.43159 130 151 135
-2.12735 0.394954 8.65298 200 129 70
-0.754433 0.45479 7.94331 62 16 10
-1.59963 -2.53237 7.89409 34 14 8
0.0666992 0.119857 8.167 48 62 8
-1.77884 3.36032 10.3359 19 33 14
-1.07516 2.02882 9.84848 175 150 118
-2.41199 0.730243 6.76261 84 64 30
0.416556 0.790594 8.59023 212 142 30
-1.2715 1.02428 8.25452 124 118 53
-1.29614 0.845717 8.17374 67 22 5
-1.67623 1.12599 8.52972 204 168 132
0.312542 0.441075 8.40713 130 138 119
0.230402 -0.0397483 8.26607 50 48 41
-0.731589 0.76441 8.0601 34 70 19
-1.01187 1.46038 8.3536 136 151 135
3.12123 0.694663 6.27649 134 103 86
0.292467 0.582042 8.45612 132 140 116
-0.00918934 0.594268 4.77077 168 149 134
-0.949612 0.242277 7.9237 118 142 90
-0.239189 -1.49739 7.13232 198 157 114
0.257412 0.565554 8.42076 128 140 120
2.52797 0.625638 6.50274 170 140 119
1.82975 0.569546 5.96179 194 166 146
-2.39989 -1.22745 8.99079 194 165 144
3.12166 0.872823 7.81936 154 125 110
2.47963 0.545115 5.83331 196 170 151
1.7077 0.516095 5.48664 200 172 152
-0.710482 1.49879 8.37533 141 122 106
-0.494864 0.349213 8.0422 140 127 114
2.67301 0.701433 6.41538 136 106 94
2.48219 0.920298 8.05759 164 132 120
-2.85188 0.723146 6.30335 146 118 103
-0.995584 1.86822 5.41624 46 62 32
2.88402 0.745667 6.86823 132 102 88
-0.27518 -5.14049 13.5581 156 62 46
2.54811 0.963852 8.17376 182 154 140
3.83518 0.944777 8.27588 176 149 134
-1.56539 -2.41027 7.28639 96 42 30
3.27977 0.699732 6.69294 80 54 42
-1.76052 1.15051 8.76489 194 158 119
1.82917 1.01618 8.19567 190 162 148
-1.6209 0.478068 10.9407 124 147 126
1.45537 0.786241 6.36846 186 159 144
-0.427406 -0.650595 7.5765 192 25 23
-0.18032 -0.555342 7.75721 120 136 120
-1.37609 -2.87529 7.37398 118 60 43
-1.62217 -0.891866 7.77115 14 8 7
-0.305714 2.39985 9.53236 130 146 124
-0.913773 2.62551 8.96011 222 185 141
-0.957222 -0.490173 7.71101 183 27 17
-0.924265 -2.522 7.22074 220 178 130
-1.46617 1.02234 8.35818 137 150 131
0.0945997 -1.38977 7.44596 200 110 10
-0.016914 0.477175 8.14171 2 4 2
0.0949897 -1.38634 7.43738 198 109 8
-0.450939 -0.927938 7.44613 207 116 14
-0.629276 -0.966965 7.40908 206 113 10
-1.80049 1.00106 8.61463 164 120 78
-0.598257 0.823008 8.07685 10 25 6
-1.95756 1.24054 8.81847 38 38 19
-0.688733 -2.34519 7.10003 215 173 130
-0.245359 1.40358 8.42138 82 34 18
0.0912947 -1.29431 7.47316 51 2 0
-0.643819 2.67505 8.96177 32 49 22
-0.516988 -2.24718 7.23592 216 176 128
-0.190247 1.2443 8.35697 86 26 14
-0.269558 1.11563 8.27921 90 30 16
0.309458 -0.795725 7.92106 176 24 19
-0.676931 -1.89954 7.13295 216 170 124
-0.278926 -1.86394 7.20039 212 170 124
0.0148838 2.05053 8.88608 210 179 140
-0.486748 -0.641153 7.62352 188 26 22
-0.310572 -0.609825 7.66201 206 156 126
-0.630064 -2.24094 7.12557 217 176 129
0.0668416 2.16257 8.97238 174 38 34
0.215996 1.06881 8.52539 122 40 22
-1.94113 0.764625 8.60391 69 44 24
-0.253885 2.4651 8.96198 18 35 10
-0.0385822 1.26491 8.41178 108 30 16
-0.502218 -1.20778 7.31612 182 14 10
-0.641383 -0.628818 7.59987 202 140 115
0.113614 2.25747 9.04753 210 177 142
-0.058086 0.114868 7.99459 24 38 12
-1.28492 2.75336 8.9015 163 154 124
-0.302463 -0.972186 7.46634 14 4 2
0.449126 0.919249 8.65816 107 58 31
-0.270067 -1.82883 7.20374 212 170 126
-0.287164 0.65518 8.09074 76 104 54
-0.509625 1.72121 8.50962 207 86 36
-1.07045 1.39282 8.36401 138 152 132
0.509612 0.150228 8.38909 218 136 13
-0.470172 -1.36086 7.26702 208 162 116
-0.91068 1.49005 8.40296 94 42 30
-0.186514 2.86669 9.26008 180 154 120
-0.070638 0.942943 8.29231 130 138 119
-0.486958 1.69134 8.5047 205 90 38
0.412156 0.325165 8.35146 48 17 4
-1.00632 1.93618 8.55471 96 66 50
-0.349707 2.28045 8.91093 130 146 124
-0.148076 0.806016 8.19851 104 44 30
-0.28455 -0.102515 7.91968 102 124 86
-0.591317 1.78906 8.50656 200 86 41
0.0662472 0.940447 8.36128 140 135 119
-0.546403 0.387803 7.92347 153 152 130
0.181758 -0.0265576 8.1592 125 139 114
-0.174188 -1.79199 7.28191 208 165 120
0.376674 1.72356 8.96908 136 142 110
-0.504672 0.311613 7.93474 62 14 8
0.338506 -0.590775 8.00961 202 154 98
0.148769 2.6641 9.31804 43 42 16
-0.233786 -0.563788 7.72345 110 115 99
-0.721841 0.232659 7.90636 15 50 8
-0.458048 0.280449 7.9495 61 14 7
-0.334863 1.01034 8.23672 152 134 102
-0.610504 -0.485278 7.70337 224 168 106
-1.63026 1.96716 8.8679 158 161 134
-0.118359 1.44988 8.46859 128 139 116
-0.497077 0.253821 7.93767 140 138 116
-0.988042 0.572411 8.00047 132 102 84
-1.84232 -2.15361 7.63916 209 166 118
-0.320217 0.232363 7.97349 103 67 54
0.246533 1.16444 8.55912 110 84 66
1.12157 -1.91025 8.73336 200 170 143
-1.45026 0.765279 8.24556 82 92 28
-0.334473 2.132 8.97887 129 146 125
-0.659546 0.0327859 7.88765 128 146 123
-0.411821 0.141323 7.93935 32 66 10
0.657664 1.98856 9.60344 116 96 72
-0.935132 -0.908602 7.50006 182 19 16
0.274497 0.896042 8.5026 142 135 104
-0.678604 -1.07133 7.36077 122 11 11
-0.770756 -1.83276 7.14468 212 166 118
-0.496043 -0.453425 7.73296 190 164 126
-0.752727 3.71726 9.32492 186 161 143
0.267313 -0.281233 8.15796 208 124 12
-0.36206 0.141553 7.95355 81 106 56
-1.1221 1.53925 8.47882 136 147 128
0.26502 1.18664 8.55958 135 133 115
-0.39585 0.931689 8.14814 142 122 103
-0.447792 1.02299 8.2009 138 148 130
-0.430983 0.229255 7.92278 70 32 20
0.25823 -0.0470505 8.22201 5 1 1
0.00810033 0.00585425 8.08111 32 70 20
-1.73289 1.87266 8.95157 134 152 128
0.46687 0.252961 8.36314 216 137 12
-0.837014 0.297728 7.90131 14 46 3
-0.67678 0.0386008 7.88591 126 149 120
-0.565963 0.265255 7.92232 93 120 85
-0.460476 0.924807 8.16282 137 145 124
0.261634 0.0454595 8.21724 43 42 32
0.39143 0.514298 8.38748 200 136 39
0.412526 1.92798 9.24251 78 93 52
0.0833615 -0.785998 7.78068 192 156 122
-0.308454 -0.709685 7.62778 184 28 22
-0.0507079 -1.75783 7.28104 206 160 114
0.0498837 0.0223614 8.08437 31 62 21
0.51076 1.26643 8.88863 124 115 94
-1.16248 -1.94041 7.3088 223 183 140
-0.0147819 -1.40126 7.41267 194 9 9
-0.532211 0.160833 7.93295 78 112 19
-0.845788 0.437519 7.93839 129 146 124
-0.379841 0.569876 8.02309 130 134 40
-0.782299 1.42312 8.36028 108 65 52
0.0920543 0.873737 8.33587 126 116 95
-0.543861 0.29372 7.92566 110 92 78
0.113099 -0.275571 8.02876 120 132 107
0.425897 1.13844 8.71996 132 140 118
-0.0100362 -1.84843 7.30451 204 161 114
0.29731 1.05664 8.55825 119 92 75
0.326963 0.526224 8.42573 134 140 116
0.598545 1.54437 9.15977 170 138 110
-0.734478 1.12205 8.26497 132 149 130
0.614747 0.890212 8.88461 208 122 50
-0.552182 -1.13434 7.34723 172 15 12
-0.924054 -3.04476 7.4591 116 55 37
0.386266 -1.2373 7.67307 160 37 18
-0.936948 1.37436 8.3077 135 150 130
0.5151 -1.6597 7.63847 172 80 39
-0.988787 2.33063 8.8127 90 114 78
0.177736 -2.55771 7.41624 184 41 28
-0.728122 2.11725 8.95651 132 150 128
-0.00683899 -0.763386 7.70812 190 154 116
-0.694873 0.905224 8.07181 131 148 128
-1.00394 2.33013 8.84809 103 130 94
-0.191175 2.69449 9.0944 121 134 112
0.28097 3.13831 9.75731 32 46 18
-0.803063 -0.988684 7.40583 179 12 14
-1.08933 4.20552 10.4338 192 171 151
-0.220212 3.08811 9.50392 28 47 17
-1.10338 2.15789 8.69762 138 154 129
-0.121344 -2.006 7.19762 210 167 123
-0.055578 -0.720794 7.69536 200 168 130
-1.35756 0.395517 8.13008 134 154 134
-1.63767 -0.948738 7.78004 8 8 3
-1.0166 0.269351 7.95312 128 150 132
-0.729039 -0.899569 7.42886 185 24 21
0.0456378 -0.155803 8.04134 126 136 111
-2.04084 -0.686267 8.41097 182 126 44
0.837328 -1.57347 8.24983 114 86 62
-0.725392 0.123547 7.86145 44 95 27
-0.225544 -1.97169 7.15773 168 132 102
-0.711031 -0.239164 7.79391 131 140 107
-1.41411 2.4409 8.97421 126 146 107
-0.970151 -2.45789 7.96607 218 175 130
-2.03691 1.346 8.95979 157 76 34
-1.55259 1.40717 8.55484 134 151 128
0.0288201 -0.117945 8.0027 124 134 110
-1.01242 -1.20029 7.37656 26 10 6
-1.47209 2.30511 8.94608 138 152 126
-0.869068 -0.502592 7.69298 229 175 106
-0.052658 -0.611033 7.78115 119 128 110
-0.346005 -0.410731 7.73195 124 139 116
-0.61036 0.164132 7.91537 114 117 62
-0.690578 0.374932 8.00863 117 96 84
-0.983144 -2.92676 7.44882 103 44 26
-0.565797 -1.47127 7.23804 208 151 108
-0.837827 3.96534 8.79982 196 174 156
-1.10298 -2.30142 7.19698 96 62 40
-0.342695 1.10129 8.27071 206 85 36
-0.759058 1.47705 8.35166 135 139 119
-0.920049 -1.18662 7.30196 7 5 6
-0.385174 0.439667 7.97702 34 62 12
-1.11585 -1.88149 7.25048 216 178 130
-1.52901 -1.2052 7.59183 60 6 2
-0.43507 0.150704 7.93941 36 62 22
-2.01083 -1.02721 8.51565 192 139 109
-0.47005 1.09298 8.21944 130 145 123
-0.502866 0.229946 7.92988 56 77 40
-0.014096 0.0307028 8.03621 27 62 14
-0.39923 0.731426 7.91679 130 144 122
-0.723113 1.28904 8.30072 136 148 125
-0.627582 -3.24903 7.28181 205 174 144
-0.930721 -2.48895 7.22697 216 175 124
-1.54812 -2.59398 7.45668 105 46 30
-1.10915 -2.33248 7.18812 64 32 11
-1.19946 -1.97337 7.23874 214 172 122
-0.17977 0.797969 8.16726 102 50 35
-0.767432 -0.483047 7.67369 222 172 122
-1.31265 0.418972 8.00532 134 148 128
-0.875947 3.73726 9.25719 188 164 144
-0.969698 4.2998 10.9086 191 168 146
-1.68247 -1.08372 7.73837 199 146 118
-0.94431 0.445241 7.95537 135 152 132
-0.550209 -0.921431 7.43909 183 25 18
-0.2842 0.119905 7.96953 130 138 105
-0.162395 0.971769 8.4215 133 137 121
-1.4016 2.90479 9.3893 156 138 108
-0.588808 -1.13093 7.33003 184 9 6
-0.417222 -1.58339 7.19863 207 136 104
-0.731474 3.93087 8.84134 198 176 157
-1.95153 -1.61642 7.81447 201 119 24
-2.27709 2.68615 10.0227 34 39 20
0.427642 -2.05732 7.68957 70 32 20
-0.574753 -0.0413536 7.83853 132 151 130
-0.0812602 -2.19608 7.2273 202 160 116
-1.41199 0.538234 8.09304 14 42 6
-0.524416 -1.26506 7.28176 9 3 3
-1.88303 -1.71647 7.75003 166 42 26
0.329754 -2.48364 7.5095 188 44 31
-0.334361 -0.242267 8.22767 128 144 126
0.265798 -0.232411 8.13455 212 129 14
0.348101 -1.98459 7.46788 70 30 16
0.281816 -0.23648 8.13185 208 128 12
-0.339902 -0.94194 7.48781 162 20 16
-0.985609 1.33924 8.30636 136 151 131
-0.52423 0.221863 7.89801 13 48 4
-0.212942 -2.22456 7.21733 175 141 110
-1.14985 -0.528627 7.77834 228 176 114
-0.562345 2.91053 9.18442 168 143 112
-0.943012 0.183775 7.91782 138 156 116
-1.8181 -1.55252 7.81453 190 24 19
0.212507 -1.93164 7.38307 189 34 26
0.136517 -2.37802 7.37739 34 17 10
0.244974 -1.48677 7.48196 155 28 21
0.186827 -2.50859 7.4188 186 36 24
-4.49996 1.41481 14.0768 6 2 0
0.559377 -2.89156 8.1562 174 88 75
1.08334 0.321475 9.632 197 169 148
0.274707 -2.41584 7.46555 185 37 26
0.125654 -2.40323 7.37873 36 16 12
0.000184966 4.97427 13.6409 89 88 64
-1.16886 -0.518364 7.76755 218 153 60
-1.28937 -4.47685 10.9423 194 94 78
-0.83072 4.1973 10.636 188 168 151
0.136917 -1.85417 7.33025 191 34 28
-1.34048 -1.77362 7.1512 214 166 120
-0.446415 -0.951697 4.44622 186 132 81
-1.09844 -0.778554 7.5889 194 18 18
-1.34625 -3.41059 8.42065 126 74 52
-1.47235 -3.64615 8.94695 186 101 84
-1.45144 -3.07773 8.56063 92 35 20
-0.720299 2.233 8.74011 130 148 129
-4.74274 1.28424 14.2109 206 180 157
-0.721349 -3.36812 7.61855 208 173 147
-4.23467 1.65902 14.4945 179 149 133
-1.16947 1.20991 12.5105 136 146 122
-1.09646 -1.7458 7.40027 208 166 119
-1.17837 -3.33324 8.01088 127 74 56
-0.495401 1.33459 8.35938 145 154 132
-1.31684 3.19968 9.86541 25 38 16
-0.822867 -3.4373 7.70614 202 174 148
-1.58265 1.47182 8.55376 136 152 132
-0.400478 -2.15603 7.16159 210 170 124
-1.9555 0.583113 8.56379 138 152 128
-1.02473 -0.993265 7.44192 139 17 9
-4.21383 1.06926 12.6003 202 179 156
-1.70624 0.602304 8.28918 136 152 130
-1.53758 -1.6946 7.4259 212 152 113
-0.614689 1.7154 5.51171 148 146 122
-0.458529 1.69021 8.52147 206 88 29
-1.44356 -2.05201 7.31528 191 168 134
0.181932 -1.28918 7.51029 206 165 124
-0.543963 -1.96538 7.12309 205 174 138
-1.69879 -2.08737 7.52119 26 18 18
-1.35322 -0.852019 7.65163 220 178 135
-1.40121 -2.06598 7.36578 18 16 14
-0.268573 1.21227 8.33451 219 134 86
-1.40486 -1.93343 7.3069 18 62 77
-0.947501 -2.43486 7.31041 220 180 132
-1.41113 -1.9435 7.33991 18 62 77
0.0749242 -2.20054 7.3186 206 162 114
-0.513737 -1.95547 7.20881 36 52 53
-1.1373 -2.43609 7.26115 209 168 117
-1.17194 -2.43557 7.25363 211 172 122
0.425046 -2.53687 7.6267 218 185 138
-0.556414 1.80595 8.54978 240 164 124
-1.33279 -2.31178 7.31549 214 172 122
-1.67312 -2.13304 7.45368 210 166 114
0.113241 1.2811 8.54899 188 80 28
-1.80543 -2.39621 7.61247 210 168 114
-1.94391 -1.36758 8.25298 167 18 12
0.270876 0.980885 8.51375 218 160 116
-1.21031 -0.693097 7.70764 192 25 15
-1.02736 2.60859 8.95819 46 92 25
-1.66811 2.70866 9.27603 32 46 15
-1.39453 -2.01729 7.30646 6 11 14
0.6214 1.38058 9.12018 92 58 36
0.381571 -0.0550188 8.33394 216 132 10
-0.802558 1.35407 8.32722 94 36 25
0.362089 0.218049 8.31141 123 134 112
0.376913 -2.40891 7.53944 203 126 8
-1.4785 1.11822 8.40356 34 10 7
-2.0254 -1.91583 7.89613 90 66 38
-0.860538 1.7127 8.49649 126 42 25
-1.57979 1.21285 8.51242 175 140 108
-0.642208 -0.386005 7.7201 231 110 42
-1.36699 1.13506 8.33832 137 148 124
-0.67227 -0.882065 7.45754 188 20 18
0.186595 -1.15507 7.58114 196 110 11
0.0447702 1.08123 8.40921 88 29 21
-1.77458 -2.47056 7.67181 66 34 18
0.171839 -0.770315 7.77182 193 142 112
0.195025 -0.813267 7.79935 196 137 112
-0.282873 -1.90648 7.18472 214 173 130
-1.74432 -2.45861 7.58843 52 24 16
0.174797 1.23183 8.55748 102 42 28
-0.94579 -0.632944 7.64608 216 165 108
0.203797 -0.828982 7.78132 187 134 109
-1.35553 1.33902 8.39295 133 151 129
0.234975 2.12834 9.08553 204 176 137
-1.5982 1.22214 8.49706 156 120 88
-0.369969 1.24143 8.30277 79 30 18
0.108445 1.11516 8.46375 88 26 12
-0.637664 0.285162 7.92146 130 151 126
-0.700631 -0.430658 7.71001 234 113 40
0.00339349 1.20612 8.43396 199 84 35
-2.18949 1.34871 9.1955 198 142 50
0.385779 -0.11808 8.12016 212 132 12
-0.902062 1.473 8.39991 84 29 20
-2.20821 -0.177627 8.68567 220 147 26
-0.148099 1.23385 8.41708 204 86 44
-1.56771 -2.42595 7.48741 34 16 10
0.0345584 1.39933 8.5352 135 138 114
0.330775 -0.797145 7.91171 176 30 22
-1.60279 -0.790053 7.86026 140 134 119
0.365048 -0.613628 7.90947 205 156 105
0.374522 0.152895 8.31909 20 20 18
-0.693475 1.91529 8.59556 207 91 41
0.508718 2.1733 9.36359 58 61 30
-0.534087 0.633051 8.01749 22 52 14
0.533405 -0.0333205 8.41084 216 130 15
0.400509 0.819844 8.56319 214 134 12
0.554069 0.191173 8.4243 215 134 11
0.36527 0.858872 8.52715 212 130 15
0.314599 0.78352 8.45471 59 32 8
-0.786676 1.79526 8.60275 189 102 64
0.556702 1.20638 8.90925 210 132 23
-0.479711 -0.965327 7.44684 201 83 21
-0.358728 2.29673 8.92163 128 144 120
0.278079 1.10812 8.56245 129 134 117
-2.13448 -1.60558 8.09566 205 132 58
0.526377 1.63544 9.09148 90 93 54
0.202662 -0.0527759 8.14406 121 132 113
0.109112 1.29795 8.56958 192 82 35
0.672021 1.96422 9.68563 99 81 56
-1.82509 -2.01233 7.57277 206 164 113
-1.38068 -2.06393 7.27343 12 12 10
0.565204 1.40869 9.00982 136 138 119
0.103739 1.18966 8.4749 90 27 10
0.331145 2.11959 9.26246 126 136 116
-0.0151416 -2.26646 7.29712 58 40 25
-0.298891 0.527463 8.02319 132 138 114
-1.15486 1.74253 8.53361 139 152 127
0.331132 -2.62154 7.59546 212 127 15
0.590179 -2.43289 7.78483 118 44 29
-1.25852 -1.1614 7.41146 190 18 14
0.0391443 1.43124 8.52735 135 139 114
-0.198423 -0.802617 7.58744 201 171 138
-1.79891 0.83381 8.52975 142 145 120
0.193336 -0.237267 8.14508 2 2 4
0.484155 -0.0760412 8.39507 166 106 28
0.568857 1.1797 8.90069 207 132 24
0.256905 1.90689 8.98856 90 108 40
-1.18254 2.43823 8.89588 79 112 32
-1.83705 0.800598 8.52783 136 132 112
-0.351306 0.343317 8.10339 120 118 53
0.497877 -0.100541 8.43559 170 105 28
-1.52054 -2.15314 7.39669 13 10 6
0.533117 0.583402 8.61377 190 70 13
0.263869 1.75664 8.90964 29 53 10
-0.422541 3.0057 9.12201 26 48 16
-0.349168 0.844857 8.16403 118 93 78
0.420987 0.618606 8.45528 210 134 11
-1.92691 1.53626 8.91245 145 147 109
-1.68101 -0.85216 7.89331 58 58 44
-2.31956 -0.29948 9.04067 197 110 60
-0.610919 0.0848316 7.90302 130 148 122
0.037219 -2.21874 7.29567 206 164 120
-0.505349 2.26672 8.82065 129 151 117
0.0648958 -2.25655 7.24308 46 26 15
0.190497 1.29092 8.57292 86 48 35
0.515789 -0.694131 8.21331 197 138 112
0.532499 1.426 9.0981 128 136 112
-0.864823 0.383561 7.9598 11 32 4
-1.18146 0.926145 8.15193 16 34 8
-0.438881 2.07866 8.68864 128 145 126
-0.189392 0.0596569 7.98803 116 122 27
0.667234 0.363578 8.6428 185 64 28
-2.14374 -1.68129 8.0039 186 88 64
-0.0744718 -1.52816 7.34295 184 8 9
-0.984674 -2.54636 7.22884 82 52 28
0.399649 -2.674 7.67421 182 44 24
-1.86628 -1.69586 7.66354 167 34 18
-0.0414305 0.95407 8.30187 132 140 122
0.623495 1.62256 9.23039 147 106 74
0.734435 -1.81324 7.95084 154 94 39
0.487752 1.89833 9.18789 136 133 112
-1.16961 0.80664 8.13044 138 124 34
0.853684 -1.8152 8.14372 133 72 62
0.181361 0.81638 8.26343 125 138 118
0.402506 -3.00173 8.20415 185 48 35
-0.177986 -0.803827 7.61119 204 172 137
0.138818 -2.29865 7.35724 38 16 12
0.312583 0.586193 8.39208 132 132 110
0.134936 -2.0696 7.32488 42 22 16
-1.63911 -1.54141 7.50979 196 151 111
-0.122859 0.785224 8.20144 98 48 31
-1.93934 -0.774618 8.24076 134 140 114
0.39431 0.651009 8.43136 212 133 14
-0.00915364 1.39609 8.50604 109 73 53
-0.484512 0.964646 8.21868 143 128 110
0.187244 1.85201 8.91091 128 137 114
0.631748 0.378729 8.53578 190 71 32
-0.0136482 0.331024 8.08145 124 137 112
0.391986 0.533942 8.42932 194 134 42
0.449626 -0.00722187 8.37263 138 86 26
-0.563828 2.93911 9.12653 148 135 103
-0.927421 0.808091 8.12714 47 61 40
0.482468 0.26487 8.34508 215 134 11
0.0206754 0.879125 8.31675 142 128 112
-0.752752 0.369822 8.0335 130 152 126
-1.96528 -0.822949 8.19532 145 145 120
-1.75356 2.83077 9.4246 37 47 24
0.388623 1.8679 9.09695 70 93 33
0.884528 -1.72007 8.25498 132 75 61
0.14165 -0.736831 7.79822 198 162 125
0.387942 2.36659 9.40232 159 135 104
0.0437713 -0.104612 8.0492 126 134 109
-0.364346 -0.972185 7.37751 178 24 16
-0.515515 -1.7159 7.12589 211 157 114
-0.515315 2.74665 9.06069 133 141 114
0.285812 2.50683 9.34599 166 142 110
0.163169 2.39947 9.22643 124 134 114
0.155737 -0.794651 7.79339 200 160 124
-0.801459 1.56562 8.40146 101 57 41
-1.36529 2.42714 9.00452 91 121 53
-0.486132 -1.05203 7.40329 185 10 10
0.273264 2.02955 9.0427 128 138 116
0.263096 -1.09993 7.66607 178 15 12
0.554384 1.52795 9.14519 114 113 86
-1.75997 -1.70242 7.59414 193 153 112
0.0313332 -0.139865 7.94502 127 138 114
-0.925219 0.740221 8.05281 80 106 40
0.297392 0.658966 8.401 135 136 112
-1.69072 1.76694 8.71995 135 148 125
-0.779186 0.18058 7.89207 24 71 8
0.438012 2.24262 9.37372 167 146 114
-0.0863413 -0.908926 7.62673 188 16 15
-0.117662 -1.1408 7.50882 190 6 7
-0.331043 -1.0423 7.41056 61 6 4
-1.95627 -2.33807 7.82486 182 62 46
-1.1285 -0.620461 7.7078 214 168 126
0.359318 0.686174 8.40968 208 136 37
0.229966 -2.5601 7.49877 190 38 24
0.459822 1.18419 8.80748 137 138 116
0.428243 -0.0544329 8.37233 212 136 12
0.727733 -2.09094 7.91163 132 54 45
-2.05925 1.03708 8.75568 135 108 42
-0.571948 0.949781 8.15884 133 147 122
0.247753 0.497635 8.54015 126 138 114
0.343716 2.1416 9.22653 126 136 110
0.467872 0.219407 8.3592 212 137 11
0.50829 -1.92659 7.66782 72 71 26
0.334065 1.90446 9.1368 83 102 34
0.804652 -2.35677 8.07186 172 114 94
-2.26622 3.35636 10.1498 76 76 44
0.702987 0.0616384 8.61449 208 100 25
-0.756559 0.423035 7.94036 50 12 5
-1.07602 -3.05843 7.52404 117 58 38
-1.18329 -2.64787 7.41671 89 32 20
0.0505317 -1.96407 7.2125 204 158 112
-2.11529 -0.637574 8.58767 215 150 44
0.721242 -1.65821 7.96793 170 92 42
0.0156036 1.57141 8.52126 129 137 113
-0.282363 0.89916 8.20028 130 108 88
-0.492458 -1.16765 7.33922 56 7 7
0.329708 1.47562 8.83614 126 136 114
0.0639247 -2.8426 7.49384 144 42 24
0.637068 -2.11182 7.80775 180 44 30
-1.43501 0.806344 8.36515 107 118 86
0.0293544 -1.85239 7.36961 154 113 84
0.283176 0.615977 8.41497 127 136 108
0.607726 0.826867 8.87762 208 126 28
0.714347 0.111198 8.65111 215 130 10
0.256296 -2.63605 7.57711 188 34 24
0.215481 2.38551 9.22576 122 134 114
0.814262 -0.106691 9.17037 200 93 24
-0.71914 -3.01478 8.15575 106 42 26
-0.00501079 3.48161 9.59102 18 34 12
-1.9324 -2.48063 7.71307 193 70 56
0.507021 3.88476 9.0683 195 173 150
-0.704352 -3.0012 8.10198 104 41 25
-0.541154 -2.01031 6.97244 34 28 23
-0.477606 -1.94287 7.13154 31 30 26
-1.3123 3.57846 10.2377 81 86 49
-1.42211 -0.478943 7.91098 210 179 137
-0.119759 -0.201739 7.96471 125 136 112
-2.65795 -0.845785 9.58132 200 170 141
-1.10205 -1.85507 7.20153 226 186 140
-0.43537 1.71371 8.52465 172 75 42
-1.26837 -0.40281 7.87117 224 132 22
0.0662247 -0.640752 8.06936 124 132 110
-0.0182411 2.57354 9.19528 124 138 116
0.463121 0.368003 8.36999 218 136 15
-0.637385 2.79827 8.71637 156 136 100
0.52546 -1.66459 7.71182 172 70 32
0.434742 -0.675612 8.34745 191 132 106
-0.473916 -1.09456 7.37013 158 21 20
0.607013 1.21088 8.95584 207 109 32
0.379911 -1.00253 8.01142 178 28 20
-0.0193004 -0.642229 7.79183 122 129 107
-0.932861 -2.26525 7.22083 222 182 138
1.19843 1.57534 10.6902 196 168 144
0.0705174 -0.138268 8.08399 124 134 108
-0.726119 2.5399 8.90653 148 98 70
-0.291416 0.131848 7.95858 137 137 110
-0.323164 0.231047 7.96078 72 30 16
-0.2693 1.03168 8.24639 144 136 110
-0.839177 2.39431 8.84072 132 146 124
0.620153 0.00137139 8.4857 188 45 7
0.21748 2.60613 9.36145 146 132 102
-0.120304 2.82917 9.10659 148 132 96
0.402211 -0.768348 8.05478 182 34 28
-0.944479 2.92242 9.20085 157 137 104
-0.0472683 0.205731 8.0781 135 146 122
0.667609 0.305308 8.77565 215 138 16
-0.363208 -0.153383 7.88513 128 142 118
0.401883 -1.76147 7.56489 182 30 22
-1.6347 2.5134 9.21022 139 150 123
-0.77156 0.730334 8.05601 115 124 27
0.353814 -1.88905 7.48983 179 32 22
3.26571 1.55373 14.3993 148 115 95
-0.539753 -3.10424 7.34686 116 56 36
-0.8328 2.86726 9.0794 163 141 106
0.506872 3.86597 9.0133 196 172 149
-0.293168 1.0005 8.2312 132 138 112
-0.501045 0.38093 7.95433 134 144 126
0.312847 0.692702 8.12632 165 135 62
-0.0370562 1.00283 8.35533 179 90 48
-1.01294 -3.43869 8.17811 128 70 50
0.13861 0.245431 8.14508 123 136 115
0.0662524 -1.13337 7.50331 184 6 12
0.671184 0.754385 8.89241 206 132 19
-0.582759 -1.49743 7.19657 209 151 110
-0.151768 -0.131845 7.87449 123 138 119
-1.15934 1.87764 8.67046 136 147 124
-1.53915 -2.81764 7.66489 111 52 34
-0.61278 -1.94196 7.09919 31 72 82
-2.05088 1.42677 9.03114 78 86 37
-0.789816 1.83688 8.54826 124 24 2
-1.94179 1.64387 9.04603 141 152 128
-0.00946136 2.16265 8.91267 134 139 116
-1.78769 2.61576 9.31093 203 176 140
-2.25323 0.114721 8.71623 219 158 76
1.49179 2.12466 11.8287 196 170 151
-0.5848 -2.26161 7.10521 218 176 128
0.224848 -0.505736 7.99575 208 129 11
-1.51853 -2.03526 7.42695 22 60 68
0.121437 0.964608 8.42105 132 51 20
0.627713 -1.6828 7.90779 164 79 31
0.417553 0.325891 8.36338 42 14 4
0.159569 -0.482729 7.98868 2 2 0
0.860858 -0.0349617 9.31447 198 84 35
-0.838938 1.50462 8.39945 144 146 130
-0.0849262 1.73225 8.93046 128 142 122
0.599849 1.07903 8.95986 207 132 19
-0.104166 0.881258 8.22315 138 137 122
-0.182411 0.74108 8.13832 112 54 40
0.422719 1.91657 9.24616 54 73 34
-0.593254 1.96288 8.55431 106 80 66
0.442 0.635999 8.40577 212 134 13
-0.84112 -1.76594 7.2381 211 168 120
-0.727861 -1.86461 7.15617 212 168 120
-2.08432 0.473634 8.73517 127 128 108
0.174331 0.939051 8.43586 132 136 122
0.394857 1.93034 9.24545 45 67 26
-2.02847 0.50566 8.60662 150 152 133
0.276479 0.822611 8.46966 136 135 110
-1.76649 0.987979 8.51908 210 170 126
-1.98344 -0.389215 8.40487 147 150 119
0.918955 0.00643218 9.61845 214 131 48
0.0286507 2.7738 9.34776 154 138 108
-1.75862 2.16384 8.89468 158 161 134
0.726255 0.300131 8.8911 214 140 19
-1.84868 -2.2898 7.67945 210 166 114
-2.07651 0.336877 8.56775 148 149 128
-2.10202 -0.472075 8.54082 216 154 48
-1.05655 0.549256 7.94545 10 22 8
-0.706574 3.74407 9.33567 190 170 149
-0.0676636 3.60048 9.54721 31 52 16
-1.19797 1.18029 8.33921 16 20 10
-1.97869 3.08711 9.98383 18 29 10
-1.18277 -0.4963 7.77946 228 134 25
0.383543 0.706355 8.45458 210 137 10
-0.584358 -3.29759 7.76133 100 56 36
-0.0473704 2.80657 9.40504 180 151 113
0.578607 1.7805 9.30349 114 80 52
0.284401 0.419747 8.38181 122 135 114
0.11953 -2.51182 7.40558 29 18 11
-2.01503 0.28431 8.48059 141 151 128
1.06429 0.17773 9.66181 192 166 141
-1.66627 -3.12461 8.04752 190 108 91
-0.436509 0.120701 1.71083 162 156 132
0.635044 0.929711 8.75566 214 124 38
0.434592 1.07741 8.69042 132 130 102
-1.59769 -2.14868 7.42358 100 70 43
-0.898573 -0.124132 8.06772 128 148 130
0.855379 0.755275 9.85737 209 135 40
-0.0395964 2.82964 9.2989 124 116 82
-1.63095 -2.40877 7.39597 48 26 16
-0.223349 -3.26969 7.61967 188 104 80
-0.228993 0.796565 8.1602 132 88 74
-0.535482 1.31498 8.31024 139 148 127
-0.740903 0.996468 8.18818 134 150 133
0.14304 0.140451 8.16406 137 149 128
-1.63179 -0.562008 7.97329 133 146 126
0.246036 0.636378 8.44769 128 140 116
0.344059 -0.0541313 8.21453 212 134 10
0.738117 1.2661 9.32512 166 70 56
0.306438 -0.131278 8.16971 212 130 10
0.235887 0.793903 8.37653 128 141 124
-0.473373 1.94187 8.62255 130 150 132
-1.97527 2.01145 9.26861 150 154 130
0.0945684 -1.75366 7.28553 190 30 22
-1.49265 2.803 9.26932 157 135 104
0.543759 -1.45815 7.79141 146 56 26
-0.0874947 0.808519 8.21455 108 60 48
-0.870977 -3.14701 7.57259 107 60 43
-1.81015 1.04735 8.5951 204 165 120
-2.04409 -2.13734 7.84652 193 80 66
-0.0845175 4.63629 12.5999 92 91 62
-0.140552 3.63577 10.3402 7 18 5
1.02442 -0.27478 9.63849 204 165 134
0.14642 -0.138466 8.11594 124 136 116
1.01682 -0.942794 9.64552 194 165 140
-1.26027 2.34125 8.88645 134 151 130
0.470847 0.815787 8.53885 213 134 12
0.214281 -2.14505 7.43787 190 34 25
1.04308 -1.79625 8.56446 200 168 146
0.764187 -0.140301 9.30365 214 134 13
-0.124069 0.430609 8.06625 16 46 10
0.0698711 -0.308621 8.05412 124 132 110
-0.164712 2.79916 8.74471 26 51 18
-0.276003 3.69872 10.3924 17 30 13
0.208775 -2.3985 7.42007 182 34 22
-1.34758 2.34727 8.97085 132 152 129
-1.0305 -3.00428 7.52355 115 54 38
-1.60078 -1.73609 7.45301 205 148 106
-1.47388 -1.78534 7.35683 208 148 109
-1.57309 -0.49356 8.01149 133 148 128
0.133602 2.47951 9.27762 119 134 118
-0.863036 -3.19562 7.67331 94 53 36
3.04786 1.32629 12.5189 118 86 72
0.0746008 2.5371 9.38444 122 138 120
-1.33453 0.88359 8.2143 116 79 64
-4.91207 1.46189 13.2711 146 114 98
-0.485374 3.10985 9.3329 24 45 17
0.0310148 3.03013 9.5794 30 48 20
-1.38051 1.95815 8.77727 134 152 132
0.291226 1.50879 8.86368 126 137 116
-0.774563 -0.941888 7.4365 160 28 26
-0.0972995 -1.63029 7.33283 62 40 22
0.211375 3.08251 9.76484 13 22 8
-1.8213 -2.87543 7.96328 194 100 87
3.37286 1.37661 12.6837 146 114 98
-1.206 -2.71622 7.67538 96 38 24
-0.369049 -0.284997 8.44814 128 144 124
4.60548 1.75917 12.5331 202 178 158
-1.29804 0.5052 8.07889 100 117 54
-0.619629 -1.66613 7.10559 213 158 116
-0.384178 1.98257 8.6809 128 146 130
2.9902 1.73592 14.1226 195 166 148
-0.529433 -3.29796 7.82983 106 56 38
0.0490657 3.677 10.9305 21 38 12
0.143682 2.50874 9.47447 120 134 118
0.632188 3.43055 10.2163 106 95 74
0.620137 0.0499614 8.5654 204 84 18
-0.0168496 3.35473 10.4141 11 22 6
-0.668962 -2.49063 7.13619 120 56 40
0.536468 2.48596 9.66271 56 54 34
-1.94369 2.21945 9.37348 142 152 128
-0.423607 2.97708 9.00793 24 48 16
-0.0438993 -3.36879 7.93738 160 132 102
-2.07864 -2.26292 8.02816 194 77 63
-5.39804 1.44023 12.9407 150 118 100
-1.44587 2.67833 9.24762 130 147 126
-0.395617 -3.1362 7.62254 110 48 32
-0.384385 1.53094 8.47694 134 148 126
-1.41177 -4.13177 9.70831 202 172 146
-1.03973 -2.99795 7.73461 110 48 34
-1.54475 -2.77265 7.54619 114 58 37
2.58481 1.52419 12.444 190 163 144
-1.89742 1.64569 8.86734 143 154 130
-1.96367 0.355372 8.75578 140 152 130
-1.32352 -3.0121 7.61643 125 66 47
0.647473 0.888855 8.87238 200 100 38
-0.216696 3.11065 9.71858 30 52 20
0.358036 1.29226 8.74963 125 136 117
-0.948378 -3.2612 7.78977 121 64 44
-0.0602228 0.616527 8.09589 131 142 119
-1.64346 -2.55348 7.57959 98 40 28
0.22883 0.597115 8.23614 126 136 110
0.363602 -3.05381 7.94769 187 64 47
0.439459 1.69096 9.00972 78 96 36
-0.570765 -0.0454491 7.88668 128 147 118
-0.706654 -2.92408 7.099 110 47 29
-0.246374 -3.0822 7.709 96 44 30
-1.39884 2.67819 9.08913 133 138 111
-2.37198 -2.18616 8.48199 200 168 138
0.522462 0.465328 8.47423 198 50 28
0.352238 0.952803 8.54749 124 132 106
-1.91513 0.737843 8.56894 106 102 78
0.921688 -2.30238 8.33411 186 132 110
-1.64037 2.54225 9.19582 154 148 114
0.342622 0.394733 8.31768 126 134 108
-1.10887 2.37116 8.89372 84 113 33
0.676638 -0.587862 8.64891 204 150 84
0.139379 -0.29178 7.94755 121 128 101
-0.856343 3.73013 9.395 182 156 135
-1.63627 1.6199 8.69493 138 148 123
0.253312 -0.193808 8.13735 184 116 34
0.220261 -0.909546 7.72131 184 20 18
-0.990275 0.860524 8.12749 114 120 93
0.708129 -2.38369 7.7779 188 116 98
-1.59103 2.94092 9.40595 36 44 22
-0.627086 2.56088 8.94838 210 182 142
-0.583887 2.37812 8.86724 24 43 16
0.140531 0.272386 8.16229 119 133 112
-0.699685 -0.431964 7.70472 233 114 51
-1.29392 -0.62562 7.74712 214 172 134
-1.05509 -1.12388 7.3754 184 20 13
0.437374 1.04894 8.69704 131 118 92
-1.47574 -1.39574 7.53285 196 154 110
-1.17444 -1.02201 7.47142 128 24 17
-0.907239 -1.07992 7.38251 182 20 14
-1.28403 -1.28208 7.38428 164 120 89
-1.08441 -1.07858 7.38163 150 29 28
-1.12772 -2.35073 7.24548 52 26 10
-1.81324 -2.4123 7.61358 209 168 120
-1.59919 -0.821433 7.81331 131 126 109
-1.33412 -0.414839 7.89036 137 22 2
-2.06503 0.690895 8.70779 161 104 88
-1.16575 -2.02532 7.16696 70 48 36
-1.77557 -2.36374 7.60576 209 167 116
0.515188 -2.38464 7.68117 206 124 8
-1.9534 -1.68322 7.80482 58 58 24
0.0884068 0.0311977 8.08038 40 56 14
-1.81327 -0.972988 7.88362 188 156 126
-0.648407 -1.99373 7.11268 124 94 80
-1.64108 -0.886167 7.82318 75 66 58
0.692731 -0.717268 8.53059 186 60 48
0.531895 -2.59449 7.77558 118 35 20
-1.7897 -1.0677 8.03832 195 136 112
-1.18734 -1.19918 7.42225 38 12 5
-1.99191 1.23451 8.83938 88 70 32
-1.51413 0.894821 8.26964 139 145 120
-2.21032 1.47946 9.40891 94 96 58
-1.29006 -0.62556 7.73817 213 171 132
-1.22527 -0.382314 7.84881 218 134 11
-1.59495 -2.08061 7.43371 193 156 120
-1.50045 -1.26776 7.48712 190 12 14
-1.93741 1.64032 8.87497 146 152 127
0.716223 2.24017 9.82995 192 152 124
-1.38747 -1.04641 7.57119 188 11 6
0.488432 0.106356 8.40857 202 94 12
-0.320123 -1.03853 7.39554 106 14 14
0.447346 0.751024 8.56912 212 134 10
-1.78699 1.15511 8.63124 176 138 97
-1.8751 2.6418 9.52266 176 155 122
-0.267981 -1.96898 7.31983 210 174 136
-1.45611 -0.929726 7.66381 207 124 16
1.00079 2.25017 9.95648 190 162 144
0.451611 -0.377668 7.89902 212 132 12
-2.10937 -0.170632 8.60358 133 119 90
-1.77111 -1.47209 7.70603 188 14 14
0.735349 1.64105 11.7924 146 85 18
-1.79316 0.597597 8.33892 138 149 126
-1.08271 0.907034 8.17155 106 124 41
0.286069 0.73703 8.45686 138 136 108
-1.86584 -1.6564 7.74384 184 36 23
-2.05934 2.23512 9.48529 187 163 128
-6.15855 1.4434 14.499 16 2 1
-1.48949 2.80709 9.20274 154 142 112
0.156219 -0.220934 8.12129 120 126 108
0.75985 1.46254 9.60448 200 158 116
0.181843 -2.20267 7.30415 111 32 26
4.52587 1.48412 15.2241 24 11 4
-1.87802 0.832433 8.57308 190 156 122
-1.97757 2.35402 9.39376 175 152 118
-1.83039 0.403941 7.77084 128 128 106
0.772169 1.57537 9.54401 196 158 120
0.572803 2.44639 9.79439 54 54 34
-0.555126 1.44749 8.35737 140 151 128
-2.31692 -0.0146544 8.71756 208 170 129
0.292249 0.374063 8.36783 116 131 111
0.841335 -1.74678 8.17427 109 40 28
0.360268 0.631242 8.42953 134 86 31
0.683727 -0.896506 8.39076 168 40 25
0.846955 -2.15747 8.33129 186 117 104
-0.832225 0.948833 8.19523 132 150 130
0.849473 -0.535626 9.04005 206 162 118
0.139251 -0.262907 8.14668 120 129 106
-1.82895 1.34777 8.76351 140 151 128
0.262408 -0.397196 8.03008 209 130 11
-1.4287 0.769532 8.2573 77 86 30
-0.565636 -3.46926 8.27482 128 60 42
-1.1274 1.56046 8.46727 155 140 112
0.863262 0.0106757 8.94643 204 104 40
0.737653 1.74149 9.66002 151 117 88
-0.977051 1.97045 8.60306 134 129 109
2.99334 1.34333 14.9075 189 156 134
-0.0281208 -3.14998 7.69043 172 50 34
-1.90323 1.40669 8.82139 132 78 63
-1.95429 -1.53494 7.87664 180 48 31
0.102765 0.075107 8.11844 62 72 16
-1.93234 1.82862 9.18025 144 150 126
-2.08086 -1.32336 7.98767 180 110 91
-0.784401 -1.51768 7.06874 208 160 114
-0.677458 -0.695537 7.57878 192 28 26
-0.0295984 -3.3545 7.96346 119 104 71
-0.219863 -1.44083 7.78226 190 26 21
-1.2457 1.29906 8.53669 134 152 132
-0.00866257 -0.440236 7.7342 124 134 114
0.544152 2.29272 8.83297 30 37 18
0.634693 -2.07673 7.64763 178 36 26
-2.55817 -0.00111627 9.53737 200 172 148
0.889597 -1.83412 8.24715 133 71 62
-0.685667 -3.17438 7.44299 114 56 38
0.160278 -1.79878 7.36418 194 34 24
-0.128426 -2.02281 7.14905 212 172 130
0.0238889 -2.90131 7.47482 139 36 20
-6.5537 1.53568 14.4942 108 79 63
-2.42104 -1.65113 8.70186 198 168 142
-2.2574 2.99666 10.9914 164 147 112
0.639462 -2.30201 7.93461 141 48 39
-1.34407 -1.62808 7.40978 208 149 111
-2.30287 3.03197 10.7596 60 68 39
0.660577 -1.10223 8.12916 118 90 42
-2.08989 0.304051 8.75679 140 150 127
-2.18808 2.84585 10.3419 91 86 60
0.777821 1.44711 9.36841 198 160 118
-0.391615 -3.34449 8.0827 91 42 26
0.627291 -2.40559 7.84474 140 61 54
-0.6719 -1.61343 7.52481 207 142 104
-2.36722 -1.58403 8.39123 197 168 143
0.829293 0.780239 9.27273 195 110 48
0.435197 -1.76486 7.47169 182 34 26
-2.09197 1.20768 8.94253 176 122 60
0.129735 -3.13608 7.7724 190 60 44
-2.02594 1.83825 9.10196 146 153 127
-0.534029 -1.68595 7.18434 208 150 109
0.25178 3.24579 9.78118 22 39 13
0.748632 -2.2213 8.0277 172 98 86
0.694812 -2.30533 7.87888 167 92 86
0.814051 -1.29821 8.27865 174 79 58
-2.29825 3.13 10.3013 30 50 18
-1.87752 -1.56513 7.72363 186 33 24
-0.0755971 -2.93042 7.77754 78 37 26
-1.47176 -0.436516 7.88756 135 150 128
-2.54264 1.74783 10.1308 201 177 159
0.00556609 -3.11988 7.66787 174 48 32
-5.77858 1.44029 13.394 135 104 86
-0.470021 -0.392123 7.69098 126 143 124
-2.24036 -1.52158 8.10108 198 169 144
5.28643 1.6339 15.6945 133 102 86
-2.67095 0.606042 10.1444 200 173 146
-1.71059 3.08102 9.66923 12 20 5
-1.99347 -2.79219 8.18411 198 108 90
-1.70352 2.50473 8.69659 62 69 40
-1.80344 -1.57617 7.64601 186 25 16
-1.04895 -3.59916 8.21858 200 170 143
-1.97074 1.80511 9.11738 146 152 128
0.656171 -2.38628 7.80317 165 86 80
-1.06672 -2.95271 7.4423 112 52 35
-1.33439 2.17615 8.75528 132 150 128
-1.44785 -0.564923 7.91564 210 176 138
-1.90173 -0.942301 8.01701 180 159 132
-2.17235 2.94734 10.3276 49 58 30
-1.8973 3.26065 9.55306 23 38 16
-1.0523 -0.598968 7.73325 212 167 115
-1.74629 0.419176 8.66595 136 152 133
-2.08971 3.12333 10.4908 38 52 26
-2.36691 -0.640597 9.16672 198 170 142
-0.494389 -1.87523 7.18997 12 66 76
-1.00036 1.78533 8.53647 232 166 119
0.0249896 -2.16115 7.30345 208 160 110
0.0605536 -1.20917 7.46852 192 104 7
0.807384 1.32825 9.35856 201 160 106
0.697491 2.39193 9.70833 100 78 36
-0.80305 1.35357 8.32132 94 34 22
0.801103 1.34314 9.30195 202 158 106
0.513187 -2.37785 7.66399 205 122 10
-0.727 -0.807347 7.53669 209 120 14
-1.43519 -0.777475 7.71544 213 122 12
-1.58384 2.29607 9.01721 216 182 136
0.185374 1.98943 8.94592 213 176 130
-1.86018 1.39694 8.86447 158 150 122
-1.56538 -2.06438 7.41997 208 166 112
-1.16777 -0.342853 7.84134 178 24 8
-1.81088 -2.40083 7.682 212 168 112
0.787556 2.12679 9.93788 186 162 127
0.892567 1.31864 9.75534 100 71 47
0.5583 -1.10644 7.9176 13 12 4
0.493097 1.72408 9.12029 122 118 79
0.70575 -0.733039 8.4845 182 44 32
0.33699 1.71803 9.02793 118 135 96
0.812542 1.2304 9.25733 142 50 33
-0.697472 2.7676 9.14702 126 138 112
-0.311944 0.446261 8.05549 22 46 12
-0.184941 -1.41511 7.31583 201 52 40
-1.70284 -1.92684 7.45526 212 164 110
0.652545 1.51036 9.18023 206 160 109
0.0786516 1.3705 8.57481 90 30 16
-0.359023 0.0746553 8.00932 49 84 30
-1.81774 1.95096 9.00566 113 60 42
-0.0705879 -1.50764 7.38176 192 6 4
-0.0881672 -1.51329 7.40393 190 6 5
0.798693 -0.774974 8.59267 180 60 41
0.834921 -0.703137 8.8299 187 72 54
0.725233 -0.867653 8.41118 200 113 30
0.0590539 0.673391 8.22045 129 139 113
0.928583 -2.14242 8.35237 136 72 55
0.622085 1.08971 8.80278 208 128 9
0.604047 1.15938 8.88603 207 128 13
0.779063 2.17049 9.7338 86 66 39
0.471551 1.53157 8.96615 132 132 104
0.903739 -1.44568 8.50603 197 139 110
-1.38297 -1.02383 7.52566 186 11 6
0.876255 1.21862 9.50226 208 129 61
0.639093 2.31484 9.81905 48 57 28
0.663472 -2.22141 8.22553 152 46 35
0.560897 0.503789 8.61174 216 100 30
0.682499 1.30323 9.15642 143 56 40
0.613903 -0.701069 8.31532 205 151 116
0.527312 1.02069 8.7694 210 130 9
0.935472 0.799525 9.49632 200 105 42
0.791305 -1.07667 8.40083 202 115 36
-0.371439 -2.26176 7.4335 221 179 130
0.630858 1.28421 9.00357 193 88 22
-0.019057 1.26321 8.45563 108 22 8
0.385795 1.74364 8.98705 128 135 100
0.836207 -2.17387 8.12745 184 112 88
0.493481 -2.47439 7.68909 182 34 22
0.784894 -0.855489 8.54965 208 115 47
0.871949 0.797954 9.65762 209 116 53
0.400104 -2.6195 7.61735 180 44 16
-2.16892 -0.267859 8.70849 185 102 61
-0.439254 -2.56706 7.92208 117 61 46
0.507138 -0.541042 8.26807 209 130 12
0.464783 0.516442 8.38512 216 133 12
0.712783 -0.967685 8.39886 164 30 18
0.593778 -2.28095 7.7208 177 30 20
0.315085 1.03382 8.55517 95 57 42
0.485853 -2.98306 7.9534 152 70 58
-2.06065 -1.82717 7.88148 118 92 52
0.780769 -0.683464 8.6625 185 116 87
0.866155 -1.03677 8.62574 180 76 56
0.468572 1.64932 9.03665 70 96 30
0.754696 -0.856374 8.39975 175 54 21
0.594158 -2.52591 7.77329 162 81 57
0.296258 0.654668 8.395 134 138 106
0.722434 2.13075 9.85202 63 67 28
0.934782 -1.58422 8.30904 192 133 107
0.141577 0.908965 8.52129 128 134 112
-0.235308 -2.63747 7.68189 55 12 6
0.023566 2.58391 9.20908 174 160 126
0.673698 -1.0454 8.2162 158 80 38
0.848516 0.403612 9.0487 214 133 19
0.882183 -1.50245 8.34488 148 78 59
0.42202 0.0733289 8.33225 81 20 6
0.877805 0.681511 8.95662 204 131 28
0.691791 1.6599 9.05584 160 122 88
0.85255 -2.04982 8.02498 185 111 92
0.74512 -0.658641 8.75205 190 122 90
0.59968 -2.64745 7.83241 160 75 64
-0.427353 0.91009 8.15923 141 128 106
-0.0976249 -1.68883 7.29146 213 166 118
0.635165 -0.154005 8.57316 217 132 11
0.601053 0.582467 8.63489 216 128 13
-1.89166 -0.997688 7.93649 200 149 116
0.939673 0.588094 9.29647 186 108 6
0.641702 -0.165238 8.35734 216 132 12
0.847985 -0.891719 8.76054 186 76 56
-0.546241 2.29015 8.74796 53 92 24
0.328922 1.02811 8.53462 140 124 106
0.618673 0.359248 8.17383 183 50 2
0.936975 -1.78336 8.31956 192 128 105
0.74057 -0.810273 8.47092 184 48 38
0.805432 0.0349579 8.74879 221 120 30
0.769085 -0.502787 8.73723 213 132 12
-0.19428 -1.94114 7.15944 178 138 104
0.832965 -1.13516 8.4655 176 58 38
-2.32247 0.232877 8.84181 202 176 144
0.585354 2.40462 9.65864 34 40 20
-1.88786 -1.8586 7.66338 120 55 36
0.775453 -0.484513 8.64321 212 132 10
0.783476 -0.0210511 8.7685 218 124 18
-1.07295 -0.879679 7.49094 84 10 8
-2.03875 0.550505 8.74358 146 150 120
0.829381 -1.48659 8.21377 114 67 31
-2.29763 -0.191566 8.87241 192 143 86
0.895421 -1.18678 8.58677 185 79 60
0.72375 1.55627 9.34557 196 152 104
0.330194 2.45504 9.33466 172 142 102
0.934581 -1.5067 8.52921 192 136 108
-1.13522 3.5831 9.96822 7 18 6
0.238752 -0.755226 8.4037 198 142 104
-0.15612 0.928439 8.30104 102 74 53
-2.27763 0.145432 8.75038 208 176 138
0.232812 -1.51879 7.52066 185 22 22
0.707694 0.112806 8.7892 214 132 10
0.665936 -1.37886 7.87163 0 2 0
0.241541 -0.603894 7.97981 219 158 77
-1.1581 -0.938149 7.48044 123 26 26
0.901612 -0.708591 9.10008 202 161 124
0.664698 0.428637 8.71296 218 132 20
0.552269 1.49415 9.04352 138 139 104
-1.39507 3.57641 10.1027 24 38 12
0.376987 -1.53387 7.44024 179 28 18
-1.66465 1.65864 8.80171 138 150 121
-0.0869992 2.1136 8.89101 131 140 113
-0.923501 -3.36154 7.80122 184 106 82
0.665374 0.805285 8.92494 207 101 23
0.821098 0.892125 9.14132 200 96 30
0.783468 -2.58463 8.14166 145 70 55
0.808606 -1.36405 8.28922 150 84 40
0.74752 -2.68979 8.12961 170 94 82
0.729617 0.475767 8.85054 220 115 31
0.828544 0.263167 8.66759 212 136 14
0.866603 0.5257 9.00209 213 135 19
-1.94552 0.61325 8.55308 146 149 120
-1.18642 -0.975518 7.46606 128 26 22
-2.10011 -0.244 8.74893 154 152 117
-0.823463 -2.61047 7.26896 106 42 26
0.824591 0.82506 9.18172 212 120 44
0.435235 -1.08606 8.02409 178 26 18
0.177761 -1.57324 7.33224 190 23 18
-1.62654 3.38872 9.76629 18 30 10
0.52896 3.47293 10.0422 100 86 62
0.570986 0.138269 8.51129 217 134 7
0.700609 0.155328 8.6843 214 132 10
0.360171 -1.07234 8.46536 182 26 20
-2.00031 -0.276995 8.48916 156 152 116
-1.90797 -1.52264 7.7915 189 52 36
0.410696 1.11926 8.72178 124 133 109
0.0768568 -3.37378 8.0676 159 128 94
-0.416834 -1.12374 7.47118 56 2 2
0.5672 0.875089 8.50249 216 124 22
0.60119 -0.072743 8.5198 218 132 12
-2.11379 -1.78063 8.00997 194 138 82
-0.846177 -0.844433 7.50051 172 36 28
-0.31292 2.98539 9.31762 28 48 16
-2.09194 1.82437 9.10598 186 165 132
0.185654 -0.768365 7.7776 187 131 96
-0.420855 -1.12511 7.34725 61 4 6
1.01803 -1.47658 8.64921 201 164 135
0.56692 -2.9473 8.20375 168 89 77
0.42331 3.51081 9.88822 104 90 64
0.274225 -3.00993 7.86034 190 47 32
0.864099 0.577906 9.18313 212 134 17
0.545022 -2.87397 7.92724 166 78 68
0.842917 0.893829 9.17109 215 120 40
0.640276 -0.769342 8.28812 180 38 28
0.910677 0.187468 9.13736 216 142 26
0.677893 -2.6983 8.00229 156 75 64
-0.114156 -2.95313 8.10221 95 38 22
0.600094 -1.21698 7.96697 11 9 4
0.651926 -2.90714 8.28134 177 110 94
-0.0181494 -3.46944 8.09432 205 172 140
0.2239 -3.24818 8.07613 199 94 72
0.599068 -2.98104 8.2924 182 112 96
0.762372 0.748399 9.02623 198 120 6
-1.84435 -1.37574 8.00237 188 12 8
-0.182813 2.64541 9.10024 122 137 112
0.876505 0.150832 8.71607 217 138 17
0.71229 0.0171379 8.71714 210 87 20
-0.0739624 2.73317 9.16161 186 154 111
-6.05637 1.50164 13.6663 155 120 98
0.661286 0.97981 8.85295 210 127 11
-1.14196 -1.00605 7.39367 158 27 22
0.734849 0.061585 8.4408 214 96 19
-1.37577 -2.96703 8.04574 96 36 19
0.613115 -2.07358 7.69408 182 33 21
-1.31568 2.67585 8.9005 157 153 121
-0.222379 2.71474 9.18471 120 135 112
0.210265 0.564462 8.4698 124 130 104
0.0799585 -1.51479 7.46557 194 4 7
0.182949 -3.2823 7.94889 178 140 106
0.230666 2.49286 9.21113 170 144 105
-0.199704 3.17757 9.58576 10 23 3
0.228988 -2.98931 7.87119 188 40 26
-0.0136806 -1.04037 7.57028 189 5 5
-1.59689 1.90676 8.86374 138 149 120
1.11411 -2.43819 8.57028 206 172 140
-1.14866 3.68901 9.96616 18 33 10
-1.24498 -3.33273 7.92463 188 124 100
0.500673 -1.20472 7.77845 177 10 6
-1.16803 1.61392 8.4938 87 27 7
0.793589 -0.986564 8.47558 206 169 127
0.418113 -1.48415 7.64338 18 20 10
-0.186784 0.818529 8.09517 90 48 30
1.28 0.406137 10.1658 188 158 131
0.770983 -0.912461 8.48264 174 46 30
-0.529259 -0.984547 7.428 187 6 10
0.905604 0.341217 9.97028 210 135 42
-1.79208 0.832145 8.50033 148 150 125
-2.06071 0.274327 8.80325 137 148 122
0.821921 -0.122373 8.90311 224 118 32
0.598918 -0.992763 8.11932 174 32 25
0.25157 -0.703279 7.93252 193 140 100
0.0214345 -1.54763 7.51906 194 6 7
-0.155815 -0.551503 7.74854 122 134 113
0.401711 -1.38928 7.66687 71 36 9
-0.728673 -2.91216 7.97775 112 52 34
-1.29843 -2.13957 7.4037 8 11 10
0.80918 2.63312 10.6141 30 32 18
-1.31167 -0.734761 7.72311 202 111 4
0.73805 -1.90232 7.66073 16 18 8
-2.87606 1.52861 10.46 207 182 162
0.644755 0.539016 8.71522 190 48 25
-0.351555 0.469732 8.08145 4 21 3
-1.33956 1.03076 7.02789 188 160 126
-1.73509 -0.954657 7.8384 192 163 126
0.582348 2.25702 9.65374 47 58 30
0.475365 1.53488 8.95215 129 134 108
-0.137294 -2.44926 7.87053 8 1 0
-1.79128 -1.1583 7.82932 188 16 10
0.956415 0.287953 9.12864 196 97 62
-2.02311 0.359378 8.24095 221 129 66
0.942212 0.361725 9.17861 212 144 51
0.339952 1.91441 9.05655 54 82 31
0.11377 -2.37021 7.25657 72 33 25
0.787396 -2.483 8.26754 107 48 36
-2.0344 -0.824313 7.95493 200 172 143
-1.92881 1.1738 8.71927 126 101 56
-1.96957 -1.1154 8.00309 189 76 59
0.811626 -0.930866 8.56343 185 74 58
0.324396 2.46841 9.25861 165 141 108
-1.67369 2.44345 9.41116 148 148 118
-0.943981 -2.68726 7.65848 50 26 15
-1.79175 -1.48295 7.98554 188 16 10
-1.14945 2.28252 8.82773 89 120 50
-0.0617297 -2.46973 7.79973 97 36 24
-0.900702 -2.68172 7.52571 101 47 31
-2.00578 1.10273 8.58506 200 148 74
-1.24549 2.37271 8.55832 131 149 102
-1.06402 -2.49383 7.10699 16 2 2
-2.26913 0.0540802 8.80424 197 140 94
-2.08059 -1.33299 8.35313 84 60 32
0.331089 -2.97069 7.85 188 48 35
-0.887395 -1.102 7.3821 186 6 7
-1.25356 -1.94752 7.25106 100 106 90
-2.25355 0.135949 8.72487 216 164 104
0.66225 -2.88323 8.31086 166 97 85
-0.834393 -2.61468 7.09571 102 42 22
-1.40005 0.902986 8.34682 74 30 10
5.8039 1.35495 14.4933 16 6 1
0.72521 1.68954 9.35498 175 142 110
-1.10116 3.50378 9.71903 8 20 6
0.570421 -2.70708 7.91278 144 64 54
0.937209 -1.74496 8.43504 193 135 113
-1.87124 -1.72071 7.819 82 18 6
0.734759 0.470216 8.92327 204 90 26
0.572583 -2.89054 8.07033 160 80 70
0.564047 1.7935 9.1006 115 84 54
0.694243 1.92766 9.46471 58 58 33
-0.413109 -3.40673 7.88605 191 95 68
-1.08552 -2.38421 7.4979 222 180 134
-2.21658 0.105593 8.94213 142 153 125
0.644977 2.5406 9.99327 69 64 41
-2.64707 2.02538 10.5955 202 178 157
-2.13683 0.817165 8.82331 201 138 68
0.0482377 -1.89443 7.31908 184 142 108
0.766826 -2.33691 8.05973 189 120 100
-0.283354 -1.98634 7.71803 215 174 130
0.112067 -0.301763 8.22433 124 130 106
-0.831126 1.09685 8.1435 134 145 125
2.77929 0.770007 11.2432 196 168 142
-1.91167 3.04068 9.62695 20 32 13
-1.50798 3.38881 9.97329 22 35 11
0.695063 -1.09888 8.39846 154 64 30
0.678506 -1.20743 8.26326 70 42 14
0.673012 0.106673 8.60526 218 133 12
-2.06193 1.27386 8.81968 195 135 74
0.282966 0.0207168 8.36609 15 11 11
-1.21601 0.158237 7.91947 148 163 142
1.03737 -0.121848 9.46815 202 165 134
-1.83882 1.8237 8.9758 122 71 53
-1.93489 1.58732 8.65846 152 150 118
-1.82195 -1.58998 7.62687 187 36 24
-2.08615 -0.481151 8.5124 216 155 62
-1.74825 -1.6914 7.58554 196 152 107
-1.93472 -2.37376 7.70992 196 100 80
-1.17461 0.263788 7.97086 152 169 142
-0.298285 3.38054 9.80548 16 33 10
0.840941 1.75922 9.83281 106 92 69
0.980627 -0.948163 7.3394 199 164 136
-1.8932 0.353905 8.25966 142 150 126
-1.51499 3.54232 9.9951 20 34 10
0.471986 -0.584107 8.19094 202 157 107
0.0603693 -3.23785 7.83861 174 123 66
-1.23403 -1.93076 7.65988 228 190 147
-1.96211 2.95424 9.78813 20 28 12
-2.02509 -0.0132758 8.47622 143 152 126
2.63316 1.22545 13.9595 194 166 141
-0.930018 -2.63384 7.70306 170 135 100
-1.31228 -2.97078 7.33533 146 96 72
0.300184 1.59765 8.77147 58 91 26
-0.494217 -3.48608 8.7291 108 45 26
0.0666387 -0.710829 7.99123 194 168 134
-0.923321 2.37404 8.97833 132 146 122
-1.97404 -0.246463 8.41735 149 150 118
-2.0029 -1.23601 8.25626 189 50 37
0.53537 -1.19831 7.60587 175 12 6
0.935465 -1.05811 8.6352 200 163 136
0.0975758 -2.37984 7.2895 80 30 18
-1.32526 -1.66874 7.93287 208 161 114
0.74945 -2.30295 7.76978 181 112 92
