ply
format ascii 1.0
element vertex 1128
property float x
property float y
property float z
property uchar red
property uchar green
property uchar blue
end_header
-0.0570068 0.0282865 -0.0539593 0 255 0
-0.946564 -0.256544 0.271282 0 255 0
-0.365479 -1.77282 -0.250548 0 255 0
0.667488 -1.49422 -0.341671 0 255 0
1.39138 -0.346448 0.019623 0 255 0
1.3916 -0.363616 0.0249166 0 255 0
1.53181 0.408989 0.0443275 0 255 0
-0.944499 1.1833 0.467384 0 255 0
-1.75093 0.53268 0.600756 0 255 0
-1.76005 0.575341 0.606351 0 255 0
-1.96974 -0.580735 4.11531 215 210 195
-1.19554 -0.733967 4.28876 10 25 2
0.423812 0.452956 3.85513 169 162 153
-1.55322 0.2399 4.32985 47 44 12
0.549971 0.0908607 3.60095 24 17 36
-1.4886 0.407462 4.49106 100 28 22
0.255695 0.326198 3.91053 50 45 62
0.676163 0.261728 3.61948 102 20 28
1.48258 -0.2657 3.41924 173 168 162
-1.5452 0.237389 4.3443 44 42 20
0.838599 0.260294 3.59107 22 12 34
0.374509 0.352335 3.81962 176 172 166
0.374181 0.150868 3.7429 112 33 39
0.806194 0.137213 3.54877 122 112 106
0.346119 -0.00554078 3.71841 106 27 31
0.839004 0.268731 3.58579 25 8 24
-1.74816 -1.16393 4.19834 11 32 3
0.992113 -0.343485 3.44221 185 186 176
0.568803 0.191035 3.6359 171 163 158
-1.68846 0.398319 4.4922 72 67 40
0.391443 0.41713 3.85274 49 45 66
0.378549 0.115176 3.74494 181 178 168
0.499995 -0.0706521 3.50616 172 162 156
-1.92326 -1.20597 4.20983 80 13 2
-1.6758 -1.28139 4.14624 224 163 61
-1.26651 -0.627242 4.20194 196 158 70
-1.60339 -0.396018 4.16266 101 126 60
0.374819 0.492509 3.9141 163 164 159
0.876682 0.140236 3.53005 9 4 12
0.692114 0.113058 3.57278 86 16 18
-2.10639 -0.383849 4.23973 210 201 186
-1.50346 0.315144 4.36218 36 34 18
0.347097 0.0136939 3.71714 95 33 36
0.749191 0.122581 3.55322 36 10 23
0.761019 0.195504 3.57404 142 126 122
-1.56518 0.293046 4.36423 148 136 109
0.760592 0.199159 3.58011 131 111 108
0.866289 0.140724 3.51646 8 4 12
0.763728 0.125421 3.5567 44 10 14
0.345895 0.30882 3.83575 120 46 52
0.807495 0.128516 3.62309 36 6 8
0.17434 -0.00723886 3.87814 115 35 40
0.744829 0.262146 3.5963 98 19 26
0.38437 0.416499 3.85075 48 42 62
0.30657 0.132357 3.79168 38 38 48
0.747617 0.265264 3.6008 100 20 26
0.814144 -0.794979 3.98993 110 40 44
-1.69085 0.442208 4.53074 66 64 43
0.294578 0.429407 3.96883 47 42 64
0.17053 -0.126166 3.88466 97 129 139
-1.17724 -0.473043 4.33126 24 42 13
0.462319 0.527202 3.87173 161 159 151
0.798806 0.172354 3.55458 18 10 33
0.779784 0.120604 3.54539 16 5 9
1.20717 -0.83093 3.76504 107 38 38
0.936622 0.135922 3.51899 64 8 6
0.347896 0.301756 3.83686 118 45 51
0.280349 0.206568 3.8292 119 46 50
0.831221 -0.800905 3.97114 106 38 40
0.672211 -0.0396165 3.43348 97 34 39
0.661217 0.202557 3.60944 170 153 142
0.71409 0.226702 3.60344 165 152 147
0.0803137 0.217244 4.06575 190 187 180
0.364908 0.109393 3.74357 142 111 91
0.458094 0.385416 3.77451 160 148 90
0.155761 0.0505641 3.91191 122 44 51
0.723741 0.390947 3.66066 158 144 130
0.151106 0.00800404 3.90768 89 110 112
0.418979 0.048547 3.65471 82 106 92
0.0366406 0.156726 4.16446 87 117 121
0.300233 0.21082 3.82003 158 117 120
0.465209 0.450698 3.82608 46 40 57
0.936138 0.216537 3.54979 110 45 38
-1.97856 -0.199407 4.43577 105 18 8
0.319785 0.232557 3.81602 46 38 58
0.542429 0.374353 3.71091 47 36 53
0.675725 0.192825 3.59867 164 155 147
0.2485 -0.0435778 3.72489 186 180 176
0.184275 -0.0386732 3.8722 192 188 174
0.958547 0.192911 3.54132 136 122 114
0.622898 0.418759 3.71545 162 152 146
0.6435 0.147606 3.59745 162 164 150
0.733088 0.204049 3.58411 164 152 146
-1.19536 -0.966258 4.30886 174 165 155
0.407309 0.0372243 3.69933 27 20 41
0.538804 0.368692 3.69512 48 32 48
-1.81734 -1.24204 4.19178 144 145 113
1.03403 0.627835 3.75868 85 37 38
-1.82941 -0.567616 4.11511 79 92 40
0.514077 0.651717 3.93293 76 86 86
0.609353 0.464387 3.74288 42 37 54
0.982321 0.224059 3.55292 138 127 120
-1.72712 -0.733165 4.25822 69 85 50
0.647327 0.214157 3.61732 164 158 147
0.287836 -0.136477 3.64679 116 46 52
0.14039 0.0818943 3.93018 196 192 182
0.850282 0.166416 3.54932 122 95 40
1.124 0.548447 3.7011 87 38 42
0.21651 0.56596 4.16349 66 66 78
0.29945 0.263018 3.839 180 180 170
-1.86149 -0.678079 4.18561 50 66 25
0.703461 0.206145 3.59364 144 124 117
0.932148 0.368174 3.60703 126 113 60
1.26796 0.310869 3.59481 68 14 16
0.936333 0.218348 3.55069 116 51 42
0.956124 0.668875 3.79558 130 122 119
0.603384 -0.00524306 3.47822 98 36 39
0.678878 0.338736 3.65431 154 130 88
0.676565 0.30304 3.6346 144 117 108
0.339428 0.128392 3.75056 185 180 168
-1.7166 -1.35043 4.16731 138 92 0
1.02154 0.473092 3.65898 90 34 36
-1.46282 0.275976 4.37817 144 132 108
0.328723 0.472065 3.94508 88 112 110
0.991639 0.179155 3.54131 72 10 8
-1.32274 -0.594045 4.22352 38 12 8
0.54424 0.304781 3.69469 168 164 156
0.130381 0.121991 3.97085 198 190 181
-1.29781 -1.14257 4.3127 66 58 22
0.997539 0.163682 3.53078 64 5 6
0.960028 0.484573 3.662 88 32 28
0.628138 0.0921305 3.58454 56 76 70
0.720295 0.0157863 3.43329 94 32 37
0.176135 0.393357 4.04767 182 178 173
-0.0670559 0.0719208 4.31945 62 96 106
0.48338 -0.715706 3.85426 66 110 95
1.15056 0.361112 3.60493 114 98 51
-1.73268 -0.721979 4.3268 128 147 99
1.13822 0.31742 3.58029 80 18 16
0.802525 0.346469 3.61554 96 22 25
0.220842 -0.0488031 3.83678 193 188 177
0.922132 0.806624 3.94477 138 125 120
0.0219024 0.39156 4.68666 87 92 89
0.492914 0.526048 3.85755 44 40 56
-2.08094 -0.31845 4.2448 211 199 188
1.30706 -0.0741421 5.48333 160 150 144
0.983412 -0.554704 3.68923 70 113 98
0.457672 -0.43685 3.57117 51 92 108
1.13782 0.508989 3.66927 126 115 110
0.325659 0.502259 3.96586 50 44 58
0.48536 0.59101 3.9166 160 154 151
0.426594 0.414837 3.8688 48 44 61
-1.45566 -1.22843 4.22564 174 164 156
1.39923 -0.35015 3.42744 54 88 99
0.58222 0.90133 4.28473 78 76 80
0.995644 0.348683 3.59118 83 16 21
0.217584 -0.807459 3.99198 50 88 104
0.695419 0.379937 3.66788 100 34 39
0.474004 0.660305 3.98794 152 146 143
0.362246 0.0585693 3.72529 97 34 29
1.60189 -0.62781 3.77486 72 114 98
0.29389 -0.0084143 3.78039 186 182 176
0.519189 0.407462 3.75068 164 162 150
0.271827 0.161234 3.82057 168 170 160
0.920165 0.519135 3.68533 91 34 36
0.639409 -0.420161 3.52817 72 115 109
0.927221 0.686647 3.80486 92 41 43
0.681556 0.377028 3.6704 94 39 43
0.296686 -0.0081827 3.75188 190 182 176
0.860192 0.56631 3.73309 96 36 38
0.740666 0.37386 3.62901 132 100 52
0.369325 0.521979 3.93205 69 90 103
0.539277 0.0619116 3.61911 24 20 35
-1.42093 0.374691 4.49821 153 139 121
0.840127 -0.257604 3.39049 51 90 104
1.38919 0.273512 3.60772 112 100 96
1.54828 0.243076 3.66554 77 35 25
0.302279 -0.0121816 3.74774 186 181 174
0.956679 0.322816 3.58846 104 42 31
1.00824 0.387435 3.60442 84 23 26
0.43824 -0.808735 3.99226 66 108 95
0.413512 0.499638 3.8734 98 54 62
1.39045 0.274928 3.61909 112 100 96
1.6174 0.474044 3.81495 58 56 54
0.670163 0.377283 3.67416 84 40 39
0.999428 -0.470073 3.56374 72 114 100
1.06142 0.652091 3.74765 124 115 112
1.76036 -0.714426 3.86685 70 112 96
0.981757 0.425714 3.63074 126 106 62
1.22901 0.360283 3.60239 72 32 32
1.56939 0.103612 3.60862 50 15 10
0.87289 -0.548883 3.68293 72 112 94
0.518859 0.547965 3.8609 80 96 98
0.267247 -0.664497 3.82766 47 86 102
1.66758 -0.848304 4.0224 76 108 88
1.73315 -0.822818 4.02122 70 112 97
1.76702 -0.723191 3.88206 69 110 96
-1.82399 -0.708868 3.99133 45 70 16
0.748637 0.680034 3.84366 98 42 46
0.764415 0.3301 3.62026 92 16 20
0.683957 -0.575055 3.70214 68 112 94
0.510284 0.577944 3.87948 48 43 60
0.375129 0.580615 3.98558 112 50 54
0.902473 0.560397 3.70163 92 36 35
0.426793 -0.443693 3.58685 176 165 104
0.27668 0.260867 3.86541 162 118 76
1.29325 0.224884 3.57321 64 17 16
0.131403 0.336204 4.08851 187 182 177
0.412236 -0.497144 3.63302 50 92 106
1.0489 0.660049 3.77097 126 118 114
0.793551 0.560874 3.74246 100 36 41
1.77566 -0.88624 4.06155 168 147 68
0.998879 -0.513967 3.61891 73 113 98
1.16298 -0.471283 3.57131 73 116 102
1.44697 0.158225 3.58586 96 78 54
1.2573 0.628823 3.77058 123 112 111
0.608208 -0.0847586 3.41241 100 36 42
0.58377 0.394252 3.71062 100 40 50
1.6695 -0.606198 3.74627 70 114 96
-1.33794 -1.14491 4.26322 15 43 2
-1.29048 -0.653938 4.40427 4 10 2
0.559893 -0.011016 3.49576 167 158 152
0.660159 0.378941 3.67381 96 86 78
0.277966 0.542643 4.04491 56 51 64
0.718327 0.749898 3.94249 64 49 50
0.733778 0.0853064 3.5561 144 131 101
1.26574 0.692748 3.82341 126 118 112
0.70707 0.749149 3.94251 72 56 55
-1.89511 -0.606019 4.09478 32 44 20
0.896826 0.113581 3.48702 131 116 90
1.09505 0.212752 3.54624 52 41 41
0.0557086 -0.16012 4.03511 136 129 70
0.999913 0.865829 4.02505 137 130 126
1.19368 -1.36262 4.63207 78 110 97
-1.74334 -0.694767 4.09395 70 81 36
0.553567 -0.0156333 3.48972 168 158 153
-1.60064 0.156421 4.31014 178 112 82
1.21622 0.321943 3.59677 126 112 80
1.17472 0.268638 3.56741 76 11 14
-1.92715 -0.613189 4.13162 30 50 20
-1.57136 0.438641 4.4847 166 154 133
-1.85079 -0.328963 4.29142 54 60 22
0.950335 0.423207 3.63175 84 30 24
0.558958 -0.560182 3.7123 67 111 100
0.660022 -0.494761 3.59483 66 112 96
1.48065 0.582099 3.81742 122 113 108
1.56944 0.348729 3.72025 96 64 54
1.17073 0.888345 4.13056 72 84 90
0.95918 0.517884 3.68028 132 119 78
-1.48361 -0.852862 4.39078 6 22 0
0.765517 0.569466 3.75734 134 108 85
1.33086 -0.336685 3.49729 51 88 100
1.17702 0.214398 3.55572 66 12 8
0.230458 0.250053 3.87641 188 182 178
-1.80003 -0.765117 4.00085 43 52 8
-1.83724 -1.2857 4.15049 176 164 154
0.460027 0.558911 3.89243 61 88 98
1.66756 -0.607809 3.74386 71 114 96
-1.72054 0.20489 4.40234 192 175 142
1.01147 0.373149 3.6005 100 53 44
0.929983 0.478701 3.66115 132 113 70
0.46032 0.615165 3.9537 107 48 52
0.649278 -0.387229 3.50262 174 158 86
1.45048 -0.28518 3.43357 44 78 92
0.978798 0.583629 3.72293 90 48 38
0.982906 0.510393 3.65614 128 114 76
0.429608 0.398274 3.81357 169 166 160
1.06521 0.570192 3.71246 83 47 49
0.984938 0.690319 3.79354 59 74 82
-2.09279 -0.541783 4.0423 68 83 46
0.598469 -0.523789 3.64424 168 150 76
1.10843 0.28188 3.56287 88 56 14
-1.69796 -0.701737 4.34795 3 8 4
1.03167 0.39689 3.61619 79 40 34
0.0375498 -0.371821 3.9048 190 184 178
1.05605 0.435822 3.6353 86 28 32
0.0900584 0.337548 4.16458 188 182 178
0.252257 0.54935 4.09498 58 54 68
0.35204 -0.937892 4.09996 64 106 92
0.945797 0.615358 3.76125 137 122 88
-1.31153 0.373261 4.6655 132 120 104
0.261953 0.368841 3.92952 68 98 112
-1.27738 0.180334 4.45972 135 123 104
0.209474 -0.937998 4.13739 54 90 103
0.801906 -0.500282 3.61736 173 150 65
-2.06682 -0.342014 4.25887 54 72 38
0.671069 0.697895 3.89937 118 96 98
1.11808 0.599039 3.71945 52 66 74
1.27025 0.201371 3.56815 105 92 68
0.235143 -0.853062 4.03709 163 153 86
1.21382 0.195285 3.55159 100 82 44
0.291055 0.584094 4.06819 166 164 160
-1.51035 -0.734449 4.36504 9 26 2
0.516851 -0.808346 3.99092 67 106 90
0.251332 0.223005 3.85868 190 182 176
0.765554 0.596283 3.75322 97 44 42
1.15017 0.266028 3.56247 64 8 12
-1.46733 -0.715965 4.40047 8 27 2
-1.42396 0.305452 4.42683 39 34 10
-1.85437 -0.0524477 4.2438 183 94 82
0.79773 0.308646 3.60263 156 141 134
0.830703 0.629031 3.78706 96 45 43
1.39163 -0.479184 3.58532 72 118 102
-2.06478 -0.327598 4.29515 52 64 36
1.11345 -0.988537 4.18251 166 148 70
0.300406 0.630369 4.11305 118 62 64
1.48104 0.220725 3.62517 106 92 71
0.272872 -0.984357 4.27324 106 122 92
-1.50328 -0.28087 4.11997 14 36 1
0.541751 -1.29449 4.5418 86 107 110
0.441398 0.17902 3.70052 106 28 35
-1.69111 0.334802 4.41118 164 152 122
-1.48663 -0.0674054 4.18558 164 58 49
0.539241 0.729201 4.0056 105 52 59
1.23646 0.257346 3.56756 84 48 26
-1.54897 0.337529 4.39491 34 33 14
0.931908 -0.552978 3.68284 170 152 68
1.4902 0.280977 3.64278 111 96 68
0.477246 0.0596924 3.63969 171 164 157
-1.82365 -0.419805 4.27758 17 26 1
-1.93775 -0.537137 4.09939 4 14 2
0.976605 0.976537 4.18059 74 56 48
0.199861 -0.630359 3.80896 49 91 108
-2.02218 -0.496682 3.95019 33 54 11
1.05731 0.414206 3.62682 80 28 26
0.795202 0.304941 3.61179 156 135 130
0.262742 0.499013 4.03116 54 50 62
0.602787 -0.80638 3.95633 166 145 71
0.786673 0.436621 3.66494 82 46 34
1.48456 -0.518466 3.63564 170 160 94
0.986374 -0.432113 3.54748 70 116 102
1.06151 0.229075 3.54925 86 35 31
0.0645913 0.331452 4.16031 186 182 178
-1.41084 -0.4664 4.3289 6 24 2
1.05205 0.291052 3.56765 77 30 24
1.74043 -0.523699 3.65454 58 84 92
1.81658 -0.678405 3.84339 72 111 96
-1.83439 -0.527952 4.16534 2 10 1
0.448597 -0.579371 3.69514 68 112 98
-1.90726 -0.513812 4.1766 60 70 32
0.522772 0.733286 3.93837 95 64 72
-1.64406 0.0234997 4.30274 116 32 26
0.576517 0.539433 3.82503 46 38 60
0.123473 0.400327 4.19425 186 181 176
-1.46911 -0.059571 4.17573 148 44 38
0.914198 0.767133 3.91623 102 61 54
1.71482 -0.571961 3.71419 70 110 96
1.37253 0.252602 3.60692 98 90 80
0.482511 0.305698 3.72078 164 148 78
0.512507 -0.462187 3.60099 44 86 102
1.3428 0.615664 3.91049 120 110 95
0.823649 0.413477 3.64699 68 26 32
0.951687 0.802731 3.91146 66 81 86
0.932918 -0.560982 3.68143 172 152 70
0.335298 0.081947 3.74569 100 122 74
-1.87768 -0.548595 4.15662 29 42 16
0.494229 0.0864185 3.65494 84 108 94
0.779974 0.821125 4.00309 94 60 57
-1.59617 -0.126715 4.19435 52 4 2
-1.2742 -0.831965 4.21332 62 82 44
1.12149 0.399064 3.61587 81 35 32
0.708121 0.305056 3.61187 156 128 122
-1.56186 -0.181023 4.11228 29 38 10
0.544701 -0.426777 3.54136 51 90 107
0.401744 -0.0137107 3.69753 122 130 120
1.24014 -0.326307 3.42579 52 88 102
1.7413 -1.09648 4.32035 76 110 96
-1.69114 0.114401 4.2991 194 176 143
0.547288 -0.439694 3.56381 50 92 107
1.8371 -0.473301 3.66803 52 80 86
0.899981 0.601027 3.74718 134 116 78
1.21955 -0.43758 3.54839 68 116 102
0.738093 0.186226 3.57639 82 30 36
1.23871 -0.607468 3.72385 168 147 106
0.920516 0.251202 3.5746 80 18 20
-1.91966 -0.553885 4.12468 54 71 28
1.40895 -1.12897 4.37306 98 117 91
0.0150472 -0.293801 4.09511 178 162 76
0.0561429 -0.04079 4.02488 178 164 70
1.44051 -0.545168 3.73187 170 153 70
0.340503 -0.702334 3.82555 63 108 96
1.87512 -0.805347 3.99922 71 106 90
-1.49714 -0.161743 4.16257 40 56 20
0.322152 -0.229497 3.53582 90 112 102
0.792505 -1.18293 4.41963 164 146 70
0.554913 0.533417 3.81032 43 40 54
0.337845 -1.04453 4.28503 67 106 92
-1.93665 -0.381608 4.22153 2 10 1
0.517457 -1.04015 4.22309 163 146 68
-1.25926 -0.00296667 4.46424 114 70 54
-1.66376 0.156668 4.30902 198 166 130
1.15631 0.713192 3.83323 118 107 95
0.910897 -0.560243 3.6847 168 152 81
0.911954 0.217884 3.55675 101 48 48
1.18525 -0.941671 4.16408 167 149 66
0.666609 0.43834 3.71153 143 120 118
0.874532 0.712018 3.86509 108 74 65
-0.00697003 -0.0526408 4.1259 177 164 72
-1.71757 -0.790367 4.29776 28 48 14
-1.69208 0.0222604 4.26055 116 30 26
-1.33392 -0.397789 4.31802 6 18 2
1.38435 -0.591238 3.72612 172 152 71
0.946715 0.343037 3.6925 137 120 119
-1.59427 -0.870996 4.35172 47 69 23
-0.0130913 -0.143247 4.15459 176 162 74
0.915261 -0.598442 3.71446 162 160 108
0.463326 0.767714 4.05865 81 76 72
1.02716 -0.320363 3.44217 54 90 103
1.61018 -0.503384 3.61564 68 112 96
1.24545 -0.787683 3.93835 172 150 68
-1.83523 -0.0874988 4.18248 140 36 28
1.06454 0.435946 3.58534 119 94 54
0.876052 0.965547 4.17648 76 56 46
-1.53141 -0.178758 4.13532 66 86 40
0.720969 0.480603 3.71151 96 46 30
-1.26354 -0.0160236 4.47568 124 90 68
-1.42404 -0.453211 4.26838 6 28 5
1.15759 0.214203 3.55362 59 8 9
-1.21824 0.208908 4.57218 121 109 92
1.19095 -0.305907 3.43492 52 90 102
0.439818 0.146979 3.72421 112 26 34
0.85705 0.464153 3.69992 82 66 46
0.880122 0.785581 3.93838 130 105 106
-1.39921 0.0959493 4.34885 134 114 90
0.828741 0.525648 3.71004 115 80 44
-1.57786 -0.162767 4.14338 28 40 12
1.33785 0.543398 3.73605 114 100 82
0.391581 -0.596151 3.71867 108 130 100
0.0476421 0.355881 4.29087 188 182 178
1.63357 -0.801589 3.9842 114 131 92
0.545278 -0.350776 3.50167 49 92 106
0.0333934 -0.251411 4.08679 168 147 54
0.49936 -0.374308 3.50358 50 92 108
-1.48131 -0.491737 4.29629 8 32 1
1.37823 -0.421857 3.53874 82 110 88
1.03541 -0.378974 4.54776 50 92 105
0.882291 0.232244 3.58418 42 12 28
0.514662 0.25297 3.67314 92 34 38
0.30816 0.288644 3.85394 78 119 104
0.32394 -0.603472 3.73736 48 87 104
-1.26591 0.0434265 4.44758 110 51 29
0.834124 0.759051 3.9184 134 114 76
-1.78556 -0.685057 4.06088 49 64 26
-1.88719 -0.181305 4.33232 29 7 6
0.932698 0.40281 3.61183 124 87 58
1.16969 -0.928281 4.12557 167 148 66
-1.492 -0.72273 4.36982 26 42 10
1.06388 0.46585 3.65458 102 73 42
0.120138 0.0121587 3.95071 59 98 110
0.472915 0.0714575 3.65729 179 158 152
-1.44289 0.0940962 4.33982 138 101 76
-1.98336 -0.249513 4.39412 37 19 5
0.833916 0.785323 3.93623 120 100 68
-1.73748 -0.454529 4.34226 29 48 10
0.603066 -0.663962 3.78249 166 146 66
1.62838 -0.793021 4.02008 80 110 86
-1.65237 -0.102827 4.2825 114 51 38
0.632071 -0.457132 3.57524 68 114 102
-1.79817 -0.0898277 4.26308 131 24 14
1.07568 -0.325834 3.43482 52 90 103
-1.82064 -0.375173 4.22391 16 25 4
-1.90012 -0.42001 4.23648 4 20 2
-1.42624 -0.449673 4.25057 6 30 0
1.44067 0.217793 3.62216 92 67 53
0.822251 -0.961691 4.14865 156 138 68
0.743053 0.176157 3.57503 76 26 36
-1.65684 -1.01596 4.22272 34 52 4
1.14001 -0.325396 3.44006 48 86 101
1.45538 -0.23947 3.40987 44 74 86
0.634558 0.457793 3.65224 136 100 78
-2.02692 -0.349721 4.28779 38 52 24
0.376855 -0.596357 3.72242 116 136 101
0.102035 -0.19691 3.91992 172 152 58
-1.57913 -0.599805 4.38591 34 50 14
0.857342 0.960544 4.18364 91 72 61
1.46364 -0.419765 3.48457 78 112 90
0.599288 -0.934116 4.13843 166 148 70
1.35071 -1.16434 4.43416 164 145 72
1.3339 -0.609673 3.75761 172 152 68
1.49935 -0.473175 3.60671 170 152 76
-1.94551 -0.402855 4.18325 54 65 20
0.469563 -1.10747 4.41642 156 146 82
-1.55051 0.163862 4.32266 166 142 116
-1.73237 -0.00166978 4.18229 136 56 49
0.811346 0.408439 3.64533 90 32 37
-1.88695 -0.0195689 4.35944 177 75 68
-1.45683 -0.450278 4.28904 32 53 14
-1.84969 0.342357 4.47129 144 138 108
0.72706 0.142564 3.56526 89 58 65
1.01657 -0.437146 3.56698 77 113 94
-0.000907935 0.562582 4.8113 198 191 180
-1.53117 -0.904666 4.374 26 40 14
1.09089 0.394349 3.59793 85 44 24
0.950191 0.934358 4.07534 108 88 79
0.29137 -0.716602 3.90883 80 116 94
0.294153 -0.721 3.92232 106 130 100
-1.69547 -0.132191 4.30886 54 48 36
0.641281 0.322532 3.6567 146 143 134
0.509954 -0.757961 3.91 165 146 66
-1.44076 -1.00878 4.2952 23 47 3
-0.0645194 0.029508 4.262 61 94 105
1.0417 0.19614 3.53344 61 18 18
-2.07589 -0.344582 4.32719 46 62 30
-1.85315 -0.090151 4.29613 133 22 12
1.69139 -0.619161 3.73206 67 108 92
-1.74601 -0.0115531 4.20885 143 64 54
1.84128 -0.421399 3.62142 50 74 83
0.608698 0.1335 3.60021 58 98 82
0.704801 -0.381854 3.4987 50 92 104
0.00776986 0.144666 4.16083 60 98 108
1.04468 0.184347 3.53361 64 48 47
-1.3102 0.090336 4.39673 126 112 90
-1.51526 -0.110316 4.20391 62 3 2
1.00723 -0.401422 3.56647 76 119 102
0.374321 -1.13058 4.43717 138 144 104
-1.52659 -0.834814 4.36276 44 64 20
-1.62741 0.17905 4.30188 179 164 130
0.77773 0.625504 3.79859 136 106 72
-1.80923 -0.256348 4.38927 2 4 0
-1.80671 0.32378 4.40711 128 124 84
-1.27929 -0.536682 4.23737 55 75 20
1.43585 -0.228523 3.38455 93 104 86
-0.0245552 -0.0478954 4.18718 104 130 96
-1.80396 0.310582 4.46818 190 180 148
-1.81855 0.322181 4.459 170 163 128
0.412267 0.25011 3.76232 113 68 67
1.02449 -0.570906 3.69432 174 152 70
0.670659 0.664347 3.85201 95 49 40
0.519924 -1.12983 4.58299 146 144 89
1.26487 -0.572923 3.70979 115 126 86
1.33722 -0.397475 3.49005 170 154 74
1.19424 -0.804675 4.0454 166 148 76
0.618473 -0.75286 3.91732 168 148 66
0.22219 -0.576925 3.78192 50 92 109
0.76941 0.4558 3.68201 101 58 42
0.361415 -0.331853 3.5188 54 92 104
1.24767 0.561812 3.73319 120 110 108
0.753171 -1.09885 4.33454 160 139 87
2.1967 0.307517 4.46606 83 62 44
-1.89631 -0.445527 4.19782 10 26 2
-1.4899 -0.205905 4.11315 36 61 13
1.04481 0.814108 3.94952 78 87 90
-1.74633 0.0954029 4.23912 194 152 116
0.931836 0.288773 3.57198 132 118 96
1.98043 -0.766071 4.07918 86 110 84
0.44427 -1.05822 4.24517 156 140 72
0.681075 0.628347 3.8222 122 81 58
-1.80739 -0.265831 4.31738 6 10 2
0.525305 0.0223069 3.54442 157 142 94
0.61288 -0.901005 4.10538 168 146 68
1.40557 -0.641688 3.77912 172 152 71
1.16235 -0.427007 3.53998 70 118 102
0.411269 -0.769546 3.98344 155 147 86
1.29542 -0.515068 3.6358 172 154 76
1.01343 -1.06126 4.22635 166 147 66
-1.51158 -0.614489 4.41138 4 22 2
0.409898 -0.750513 3.87929 158 147 80
0.181634 0.0255089 3.82891 192 188 174
-1.88629 -0.754668 4.05429 74 90 46
0.0699312 0.0286849 4.0291 120 138 95
1.52183 -1.08489 4.33591 166 147 72
-1.45381 0.0651684 4.32746 122 104 84
0.0363951 0.0810229 4.0754 106 133 102
1.25403 -0.580727 3.72655 140 145 94
0.159473 -0.250403 3.71929 190 181 174
1.31228 0.285387 3.61255 108 97 92
-1.56294 -0.866678 4.36045 66 86 42
1.04971 0.342721 3.58572 84 40 11
-1.81862 -0.30051 4.33228 15 18 4
1.17964 -0.601789 3.81863 164 130 70
-1.43489 0.14184 4.32723 136 122 96
0.335263 0.0450468 3.73218 93 72 66
0.304686 0.337954 3.86747 122 119 122
1.57369 -0.467638 3.60484 70 114 97
-1.36941 -0.335932 4.3046 12 16 8
1.18562 -0.72955 3.87328 172 152 77
1.56298 0.542158 3.82878 94 74 57
1.88941 -0.425556 3.65635 50 74 78
1.60839 -0.401075 3.55063 50 83 92
-1.83168 -0.215929 4.33454 28 29 13
0.561247 0.460582 3.77401 46 40 56
1.13868 0.517803 3.68618 126 115 110
-1.84793 -0.378752 4.31325 14 22 6
1.02281 0.578654 3.71604 113 104 99
-1.80321 -0.304234 4.32056 4 6 0
0.895748 0.200499 3.56045 95 64 66
0.663092 0.143316 3.58597 128 78 42
1.37244 -0.654159 3.7977 177 148 82
0.967161 -0.690379 3.77996 172 152 66
0.677992 -0.909746 4.16102 166 147 62
0.286082 0.662619 4.19655 110 69 76
0.939199 -0.736635 3.99026 166 146 62
0.353671 -0.32858 3.51336 54 92 105
-1.84984 0.298611 4.45017 196 186 152
0.127346 -0.622338 3.81783 52 94 112
-1.39161 -0.301461 4.35499 3 4 0
0.305412 -0.962856 4.1486 71 104 84
0.775551 -0.934662 4.0598 136 120 53
1.47768 -0.654051 3.7803 168 152 79
1.08482 0.325109 3.57505 117 73 66
0.0903029 -0.624537 3.87831 50 92 111
1.21278 -0.566104 3.7986 176 154 70
1.66723 -0.358198 3.54 47 78 89
1.28818 -0.772864 3.91887 169 150 67
-1.27447 0.0696789 4.41321 124 112 88
0.78637 0.479247 3.68057 102 51 38
0.32212 0.0601131 3.7573 92 47 46
-1.77167 -0.370726 4.31579 25 42 7
0.471063 -0.754176 3.90275 162 146 70
1.24505 -1.0193 3.7162 76 110 94
0.694472 -0.665597 3.80906 114 130 96
0.698538 0.0717838 3.54227 144 128 82
0.280881 0.107831 3.79265 159 168 158
-1.83441 -0.627355 4.06811 21 32 12
1.37082 -0.828114 3.99259 168 148 64
0.722776 -0.922827 4.10712 166 147 63
-1.53644 0.170704 4.31325 150 125 98
1.09319 -0.266482 3.44477 50 88 102
0.451526 -0.609599 3.78848 74 110 91
0.512618 0.240414 3.66486 86 32 38
-1.42279 -0.250956 4.14821 9 8 0
-1.8183 -1.14877 4.19981 64 90 24
0.714466 0.462833 3.71452 102 50 38
0.0648907 0.0914251 4.03563 66 102 116
0.668079 -0.756026 3.94945 168 141 68
-1.44278 -0.545176 4.17823 41 64 17
1.29116 -0.477234 3.60352 175 153 76
-1.77679 0.333635 4.43015 181 170 138
-1.15489 -0.0326519 4.60282 130 120 102
0.754269 -0.992976 4.18165 158 140 74
-1.76529 0.134885 4.31922 206 192 153
1.53327 0.437897 3.74288 120 110 105
-1.30086 -0.00707018 4.42508 112 96 73
-1.56544 -1.02086 4.29561 30 55 6
0.846511 -0.578725 3.69579 172 151 66
1.66158 -1.10935 4.35891 166 146 70
0.536911 -0.748165 3.8963 85 110 80
0.175069 -0.178491 3.83241 172 154 88
0.842131 -0.691147 3.87759 169 150 66
0.323313 0.349873 3.88449 133 130 134
-1.43015 -0.0911318 4.44081 122 36 30
1.48219 -0.661071 3.76775 109 115 72
1.7392 -0.492361 3.65953 90 106 92
0.134179 -0.194625 3.71661 171 152 84
-1.18911 0.210647 4.63857 76 69 44
-1.43606 -0.709247 4.34886 8 28 1
0.743809 0.650635 3.82491 92 47 33
-1.7849 -0.445328 4.25328 18 34 9
0.877611 -0.691102 3.9189 169 150 65
1.28087 -0.549965 3.70001 172 152 71
0.186744 -0.848661 4.02873 89 108 96
0.158571 0.168494 3.95867 194 190 184
-1.76675 -0.421817 4.31538 24 44 8
-1.26452 -1.0292 4.33261 174 165 155
-1.94853 -0.503529 4.12213 12 28 1
1.73217 -0.487586 3.63793 66 84 78
-1.7471 -0.29769 4.34461 18 26 14
-1.38357 0.143078 4.35618 133 120 94
0.815577 -0.700954 3.88264 170 149 64
1.10748 -0.625567 3.76559 174 152 68
0.848435 -0.183756 3.3253 54 92 104
0.633006 0.605528 3.69068 120 76 60
0.315603 -0.226728 3.49585 86 110 100
1.31084 -0.64915 3.76526 176 150 76
0.834949 -0.607085 3.72846 171 150 65
0.522198 0.456135 3.73506 44 38 56
1.09325 -0.973698 4.21347 162 144 72
-1.66427 -0.840355 4.26194 12 31 6
-1.66407 -0.0826677 4.2273 134 26 14
-1.47489 -0.179399 4.14102 38 56 18
0.90405 -0.691681 3.94926 172 151 67
-1.80217 0.0192771 4.31612 174 83 75
-1.14946 0.105692 4.68492 96 88 68
-1.7807 -0.929408 4.28056 16 30 10
1.10834 1.06597 4.2435 158 149 141
0.286235 0.0154022 3.75344 187 182 176
-1.56718 -0.851956 4.36204 42 64 18
1.49918 -0.609176 3.72171 165 158 98
-1.64966 -1.05895 4.22898 38 56 10
1.35429 -0.448624 3.59756 82 111 86
0.93032 -0.686925 3.9173 171 151 66
1.47453 0.416073 3.69079 119 110 106
-1.77614 -0.287701 4.32699 27 30 16
-1.50605 0.0533432 4.326 124 105 83
0.72698 -0.773423 3.95213 169 149 63
-1.76272 -0.665622 4.0746 24 40 7
0.819103 -0.617881 3.74633 170 150 65
1.06927 -0.983205 4.20237 167 148 72
1.44293 0.4731 3.82286 49 61 64
-1.4175 -0.489116 4.23112 14 39 6
0.873541 -0.651992 3.75326 170 150 64
0.968798 -0.690239 3.97021 171 152 68
0.612476 0.538392 3.79456 37 38 52
0.131103 -0.681257 3.88804 49 88 106
-1.86156 -0.136259 4.32209 104 30 21
-1.64288 0.589215 4.74277 174 164 150
-1.29155 0.0817139 4.43466 122 108 84
-1.76211 0.0560511 4.27427 204 186 150
-1.66806 -0.552983 4.38042 6 20 3
1.05737 -0.952717 4.19143 160 142 69
0.850442 -0.995557 4.19798 123 109 62
-1.76956 -0.58014 4.39031 11 27 4
-1.29247 -0.518972 4.23131 34 58 6
0.8221 -0.319396 3.43316 52 91 104
-1.24353 -0.539781 4.24239 42 56 22
-1.35388 0.284696 4.42099 76 69 47
-1.41661 0.0452406 4.41055 116 100 78
0.71011 0.53941 3.75454 92 71 56
0.819538 -0.0392382 3.32766 142 130 126
-1.57182 -0.0267847 4.18337 147 50 44
0.336433 -0.109714 3.61316 112 44 50
-0.996171 1.18913 4.11457 190 182 168
-1.84327 0.00814716 4.32581 192 109 94
0.784407 0.96635 4.17923 120 106 102
-1.90049 -0.986573 4.29809 180 168 160
1.27312 -0.870364 4.11743 162 146 72
0.782766 -0.11388 3.34626 56 96 111
0.30336 0.416217 3.9363 47 58 72
0.778134 -0.107897 3.34142 56 94 104
0.335269 -0.093097 3.6827 148 108 66
1.10726 -0.451134 3.62075 178 156 68
0.982332 -0.621118 3.69682 172 152 66
-1.30796 -0.420195 4.31155 28 43 16
0.375899 -0.20822 3.55321 86 112 102
0.525311 0.462495 3.74007 41 36 55
1.32663 -0.075896 3.40205 36 62 52
0.709824 -0.781262 3.99341 168 150 65
0.717348 0.0259925 3.6371 98 32 38
0.336417 0.359056 3.90276 121 117 123
-1.64472 -0.620641 4.35358 14 26 4
0.986504 -0.641852 3.7246 171 152 66
-1.82513 0.202939 4.39569 203 192 156
0.719581 -0.76471 3.9937 168 144 70
-1.42745 0.535776 4.7791 110 98 83
-1.28623 -0.398228 4.3092 22 36 14
-1.66409 0.225635 4.32029 184 172 139
1.41967 -1.34818 4.3035 166 156 146
1.81131 -0.544492 3.66603 56 80 87
-1.77603 0.314414 4.41444 188 176 146
-1.58073 0.635804 4.79203 196 188 172
0.334047 0.358874 3.81275 120 114 120
-1.80353 0.0180221 4.28649 178 90 80
0.106151 -0.650103 3.88571 54 90 102
-0.542704 -0.0719765 5.55593 184 178 166
0.927466 0.322162 3.22593 80 52 43
1.27948 -0.388946 3.49132 68 114 100
-1.34529 0.161213 4.39888 134 121 97
-1.45328 0.0311609 4.32279 117 99 78
0.8962 -0.0704579 3.34125 50 89 80
-1.21757 -0.876828 4.18415 176 168 157
0.465907 -0.00586731 3.63705 160 142 86
0.843409 0.128085 3.54354 80 57 26
0.578293 0.319461 3.6859 133 140 129
0.583485 -0.197659 3.76329 84 122 126
0.848504 -0.670583 3.85922 172 150 68
1.40818 -0.561523 3.65828 172 158 82
1.00203 -0.612364 3.68605 174 153 66
-1.09175 -0.446369 4.30053 202 196 184
1.26303 1.06246 4.15889 158 150 140
-1.92801 -1.16877 4.03015 177 167 156
0.677974 -0.0641314 3.403 94 32 36
1.54008 -0.690361 3.80997 171 150 70
0.750739 -0.105032 3.34895 65 108 105
0.830338 -0.599953 3.65249 172 151 68
1.58548 -0.742034 3.91164 171 150 70
-1.01928 1.19264 4.10456 208 198 186
0.0884998 -0.948494 4.12976 60 93 106
0.667012 0.0137942 3.45785 96 33 38
-0.082121 -0.266257 4.33624 98 100 100
0.514642 -0.134804 3.45541 130 144 138
0.482456 0.888921 3.96703 187 182 172
1.15158 -0.890322 4.10266 166 146 69
-1.47911 0.538531 4.73727 140 129 112
1.34964 0.398952 3.59573 108 105 102
-1.37869 -0.0306922 4.33608 105 48 42
-1.42231 0.650075 4.62465 196 187 174
0.819049 -0.597127 3.71466 170 150 64
-1.35638 0.152478 4.35624 130 119 95
-1.33005 0.143484 4.40135 132 120 96
0.334055 -0.0978927 3.44376 111 42 48
0.664024 -0.0660128 3.39424 96 34 38
0.868564 -0.0816321 3.31869 58 101 96
0.283971 0.0859167 3.78192 192 181 174
1.79563 1.11098 4.16482 176 166 156
0.0660114 -0.755504 4.03877 54 94 111
-1.3466 -0.0788432 4.28382 107 26 19
0.175126 -0.544546 3.80393 52 94 110
-1.48182 -0.751946 4.37721 30 53 12
0.892467 0.96192 3.77897 182 172 162
-1.33177 0.0397471 4.41978 118 102 82
-0.962774 -0.953016 6.11358 209 202 190
-1.73707 0.298027 4.40895 186 172 140
0.478867 -0.123997 3.45721 173 162 156
-1.71723 -0.588787 4.28478 10 26 1
0.61739 -0.1225 3.16034 62 104 108
0.430019 0.950694 4.33807 185 181 172
1.28542 1.54426 3.69911 198 188 176
0.160213 0.708275 4.78499 189 185 180
-0.826458 -0.962308 6.17795 210 204 192
0.368005 -0.177105 3.50384 112 42 48
1.04035 -0.692581 3.85665 170 150 66
1.45437 1.05346 4.22355 124 114 108
-1.59649 -0.723014 4.34413 30 50 4
0.51701 0.240356 3.68804 89 33 44
-1.73943 0.769614 4.62016 208 200 186
2.05705 0.244326 4.06579 134 124 114
0.0418022 -0.652685 3.87103 48 93 111
-1.66705 -0.00858825 4.28605 132 46 38
0.494944 -0.0408836 3.54661 174 164 158
1.06061 -0.652035 3.78345 172 152 66
1.13729 -0.0784554 3.31849 46 80 90
-0.95773 0.742611 4.63557 203 196 184
-0.568673 0.556504 4.83903 165 158 148
1.59105 1.09804 4.15005 172 162 152
0.592946 -0.171153 3.39529 70 106 119
1.17726 -0.120996 3.34491 50 86 96
1.16436 1.02652 4.206 108 98 94
1.19206 -0.0397916 3.32185 59 70 63
1.32377 -0.123345 3.33258 50 84 94
0.371643 0.218908 3.75411 94 76 70
1.63131 1.17634 4.07201 194 186 174
0.166493 0.115284 3.92269 196 192 180
1.39842 1.17738 4.14117 196 188 176
1.02654 -0.228779 3.51582 176 174 165
0.258898 0.337903 3.94573 52 50 64
0.851644 -0.79858 3.95947 104 32 34
1.35525 -0.8978 4.07324 102 28 34
1.24084 -0.994458 4.18441 43 66 62
-1.14929 -0.348537 4.74197 198 190 178
1.08015 -0.477564 3.56799 170 150 63
-1.37379 0.407951 4.53953 134 124 108
1.05669 -0.467309 3.49102 168 150 62
1.13267 0.236087 3.48278 104 72 46
1.44168 -1.25348 4.57006 164 144 66
1.23359 -0.790317 3.95364 166 146 62
1.12809 -0.802879 3.94507 148 134 74
0.958824 -0.971744 4.16047 164 144 66
1.48891 -0.72717 3.83409 170 149 68
1.46975 -0.705028 3.84702 168 146 65
0.762729 -1.29842 4.49751 68 106 92
0.976067 -0.753708 3.89251 158 143 72
1.01899 -0.328856 3.42314 46 86 98
1.432 -0.696093 3.81609 162 151 91
1.67426 -0.552616 3.64026 112 124 82
1.46873 -0.863976 4.04668 168 146 60
1.46916 -0.829807 4.01343 166 146 61
1.46951 -0.718014 3.83279 166 146 64
0.484962 -1.14234 4.4551 74 104 84
1.15377 -0.567434 3.71005 170 150 64
1.8666 -0.515078 3.67119 40 70 78
1.07027 -0.680272 3.83344 169 148 62
1.04794 -0.653632 3.79116 167 148 60
1.42479 -0.727197 3.82486 171 143 70
1.37058 -1.08757 4.30493 164 144 66
0.767827 -0.87336 4.0778 164 146 62
1.03665 -1.2783 4.95124 157 146 69
1.16287 -0.0584589 3.36547 38 70 74
1.82434 -0.334885 3.51562 53 78 84
-1.22342 -0.0204816 4.57899 116 104 84
-1.76805 -0.82262 4.2473 198 188 176
1.18512 -0.530466 3.64706 67 108 94
-1.31248 -1.15867 4.33522 106 70 4
0.896161 -0.263844 3.41893 172 158 88
0.685485 -0.456531 3.5711 164 148 62
0.940486 -0.351753 3.4433 66 114 102
0.598243 -0.577683 3.70168 158 148 85
1.35686 -0.3058 3.42493 158 152 110
0.316356 -0.829987 4.00249 157 144 74
1.4084 -0.30476 3.44098 47 79 90
1.20333 -0.460283 3.581 94 126 116
1.60514 -0.793388 3.96746 66 106 88
0.830733 -0.61018 3.79634 166 146 60
1.03464 -0.83287 3.9988 165 146 62
0.999309 -0.762855 3.96257 150 133 74
0.553422 -0.489944 3.60079 120 140 104
1.12809 -0.330101 3.43603 44 82 92
1.53165 -0.460494 3.58302 62 108 94
1.11681 -0.746165 3.88917 153 138 74
1.5383 -0.727093 3.9112 169 149 70
0.349305 0.0939298 3.70993 122 118 74
1.51141 -0.42315 3.5367 102 122 95
1.54661 -0.569457 3.70227 128 140 95
1.59704 -0.772266 3.92173 74 106 84
1.22671 -0.380844 3.47458 64 111 98
-1.46444 -0.389981 4.23143 24 14 2
-1.54734 -0.635544 4.33774 14 30 3
0.774442 -1.14064 4.3442 163 143 66
0.926687 -0.956316 4.14499 134 119 54
-1.53258 0.0180433 4.3064 112 36 30
-1.72215 -0.9817 4.27961 7 16 6
0.213381 -0.672262 3.83848 103 121 100
1.24026 -0.391633 3.49957 64 111 99
0.95211 -0.396592 3.4598 62 111 96
0.958383 -0.333056 3.43682 49 88 96
1.19134 -0.853231 4.01601 144 125 63
0.237448 -0.683493 3.83108 104 118 98
1.68069 -0.768061 3.92527 158 154 100
0.225095 -0.676913 3.8465 112 124 106
1.33773 -0.747891 3.98575 166 146 62
-1.50502 0.110211 4.22661 162 136 110
0.240791 -0.687936 3.85102 117 130 108
0.978898 -0.681768 3.76227 166 148 61
0.678824 -0.880917 4.04923 162 144 60
1.36246 -0.674319 3.79408 173 145 74
1.30743 -0.665095 3.77 167 148 61
0.783671 -0.467762 3.56196 166 146 68
0.379955 0.39032 4.49154 125 105 102
-1.61062 -0.029768 4.17943 147 66 56
0.130707 -0.608869 4.00979 49 92 108
1.28457 -0.668308 3.75671 166 148 63
1.32152 -0.670466 3.774 168 148 63
1.4055 -0.680212 3.89729 170 146 70
0.938896 -0.218398 3.35086 53 86 98
0.215348 -0.977533 4.19382 135 146 120
1.39132 -0.568168 3.68179 166 148 65
1.21653 -1.12211 4.31769 163 144 64
0.203559 -0.714669 3.89938 48 85 104
0.739252 -1.06565 4.33301 166 144 67
1.32529 -1.03579 4.25086 161 142 66
1.00474 -0.623457 3.74138 167 147 60
-1.25915 -0.240269 4.47938 100 17 10
0.715732 -1.04621 4.3088 165 142 68
0.570709 -0.673291 3.77906 160 142 62
-1.82313 -0.138694 4.29886 80 32 24
1.41738 -0.722057 3.88773 166 146 62
0.750847 -1.07457 4.3338 166 144 70
0.568333 -0.717649 3.89148 161 144 60
0.94578 -0.729296 3.86137 164 148 72
1.2682 -0.36591 3.46764 64 110 98
1.30089 -1.50244 4.53479 166 157 148
-1.2934 0.114741 4.41183 126 114 91
0.42162 -0.600704 3.72741 66 104 85
0.782923 -1.50891 4.97221 167 157 148
0.652569 -0.968266 4.14821 164 140 70
0.905449 -0.804702 3.98649 112 42 39
0.713137 0.227392 3.60069 170 156 151
0.889497 -0.804697 4.0323 110 40 40
-1.3769 -0.395279 4.30647 88 103 64
-1.59918 0.34639 4.42815 74 72 47
-1.46751 -1.23957 4.27676 181 170 158
-1.47344 -1.13924 4.32429 6 18 4
1.22798 0.484876 3.665 119 110 106
1.30363 -0.335572 3.37198 50 88 100
1.08201 0.162398 3.52654 46 4 6
0.229033 -0.761667 3.99049 50 87 102
1.25855 0.356772 3.61242 117 108 100
0.805377 -0.341393 3.46249 48 90 102
-1.66371 0.070026 4.29114 182 160 130
0.929362 -0.352484 3.43361 63 109 102
1.20996 0.254501 3.55264 122 108 86
1.50673 0.180007 3.62446 63 7 8
0.710098 0.29287 3.62083 146 112 108
1.00446 0.123096 3.50207 122 102 60
0.905257 0.235708 3.56014 95 42 42
0.829722 0.64736 3.79781 106 58 50
1.12332 0.435008 3.63083 110 68 64
1.52585 0.653748 3.90469 64 52 54
0.617356 0.206846 3.61755 82 30 42
1.34418 0.291364 3.59393 24 47 52
1.65021 -0.552247 4.10585 64 110 96
0.393777 -0.630364 3.78332 119 136 98
1.98868 -0.437732 4.81918 42 74 88
1.26312 -0.601183 3.75144 167 157 97
1.2811 0.115221 3.53539 110 95 50
0.539647 -0.49374 3.63876 164 166 117
0.769845 -0.371598 3.48555 110 130 134
0.367668 -0.651402 3.8242 64 111 96
0.215312 -0.697253 3.99086 85 108 95
-1.76642 -1.39237 4.20305 182 169 156
1.01403 0.208613 3.5452 38 31 36
-1.19191 -0.000641551 4.56487 120 108 89
1.02229 -0.375602 3.47 65 116 101
-1.92758 -0.244923 4.32199 24 15 2
0.185211 -0.709579 3.91579 52 88 105
0.984524 0.263798 3.57113 126 100 101
-1.88177 -0.39013 4.26558 34 48 12
1.21445 0.887078 4.04632 132 117 115
-1.40004 -0.255537 4.35803 18 14 4
0.195468 -0.701256 3.8496 54 90 107
-1.27558 -0.165505 4.51315 102 35 28
-1.78558 -0.491931 4.32712 16 32 4
1.78112 -0.634252 3.79685 154 151 98
1.85239 -0.387931 3.61241 59 73 69
0.941679 0.433345 3.63833 94 44 28
1.41806 -0.71905 4.40628 172 142 78
1.53852 0.434259 3.74686 114 97 92
1.66111 0.506207 3.85739 115 104 97
-1.86605 -0.276222 4.32079 9 10 2
0.478665 0.295473 3.72444 101 120 84
-1.67496 -0.774047 4.34576 18 42 6
1.03932 -0.767558 3.9275 170 150 68
1.5476 -0.920033 4.10642 164 138 69
0.585342 -0.751726 3.92721 158 156 95
0.684853 0.5404 3.79292 122 74 60
-1.31103 -0.141524 4.49634 100 20 16
-1.30684 -0.0981794 4.43593 102 30 28
-1.42559 -0.229937 4.32813 2 2 0
0.934817 0.14435 1.95387 120 110 92
0.787723 -0.677209 3.81598 170 146 72
0.53424 -0.649358 3.76121 166 148 66
1.2218 0.696795 3.98367 87 86 84
-3.78787 0.699357 9.69479 117 110 81
-1.37262 0.0342789 4.34977 121 102 80
1.56538 -0.386405 3.54087 44 80 92
-1.38088 -0.0101252 4.41551 116 96 77
0.825014 0.0506891 3.36485 144 130 106
1.71538 0.396545 3.8378 112 101 97
-0.762239 0.549644 4.28581 160 152 140
1.18473 1.07043 3.97815 194 186 176
1.67192 -0.348843 3.55501 44 76 88
-0.757734 -0.063109 5.08181 186 179 166
1.23341 0.663822 3.78471 86 36 39
0.0324837 0.0724832 1.76621 211 204 189
0.993454 0.175317 3.53581 72 7 7
0.724814 0.533381 3.73901 146 127 77
-2.02073 -0.214429 4.35588 116 32 20
0.856544 0.663489 3.79781 140 125 94
1.05164 0.261115 3.55894 20 6 22
1.18526 0.300297 3.57207 70 10 5
1.03217 0.555031 3.6963 138 124 104
1.28246 0.268219 3.57784 117 106 100
0.250518 0.159541 3.86284 193 186 178
0.587871 0.665202 3.87932 50 51 58
-1.42972 -0.198072 4.22358 4 5 2
0.894451 0.732137 3.8363 106 64 56
1.34337 1.0324 4.73652 124 115 108
0.535344 -0.447802 3.57383 55 90 106
1.00296 0.658123 3.75553 132 125 123
1.22862 0.469457 3.64826 120 110 103
1.45768 0.0814797 3.58006 114 96 56
1.05343 -0.574803 4.7046 58 98 96
0.411957 0.164066 3.73346 91 52 50
1.21051 0.172307 3.81176 93 66 40
0.818931 -0.398836 3.52724 70 117 102
1.07554 0.119451 3.39338 116 98 52
1.18548 0.172425 3.53751 97 76 29
0.589098 0.427569 3.70671 168 162 156
1.87961 -0.667408 3.90193 107 124 98
-1.4361 -0.962523 4.43017 46 55 38
1.20188 0.64091 3.77125 116 102 78
1.24566 0.392027 3.62765 68 17 22
0.659145 0.553476 3.77792 102 48 44
0.924889 0.626874 3.77079 100 67 46
0.95324 0.270848 3.56069 96 85 80
1.51029 -0.808441 4.03247 168 150 68
1.521 -1.25181 4.76237 128 133 106
-1.7275 0.106186 4.33242 202 160 127
0.474042 -0.506019 3.6354 69 106 99
0.846541 1.16955 5.71572 130 120 118
0.662632 0.247506 3.02421 168 160 154
0.994246 -0.303376 2.15707 133 138 100
0.511967 0.261236 3.69262 108 45 46
-1.80992 -0.307239 4.30817 16 24 3
0.773172 0.527563 3.71692 100 52 40
0.803609 0.732729 3.88638 138 110 72
0.491037 0.564288 3.87307 80 74 80
0.465273 0.106295 3.68918 145 102 98
-1.56107 -1.30141 4.42328 170 162 146
0.404223 -2.41984 13.2248 51 90 106
0.512834 -0.138408 4.39703 104 41 44
1.03411 0.336875 3.5847 66 46 19
1.82962 -0.0142507 3.7539 30 42 41
1.18397 0.811718 3.96805 122 105 102
0.982161 0.322383 3.59661 134 109 58
1.61758 0.311325 3.70524 110 100 94
0.568243 -0.141282 4.46462 164 154 146
1.05579 0.884412 4.03996 139 132 130
-1.47388 0.566823 5.10739 100 89 78
0.62372 0.273433 3.65554 66 24 30
-1.38132 0.441044 4.6183 146 135 116
0.655134 0.517524 3.76971 104 58 52
0.603547 0.667444 3.88672 62 75 82
1.6193 0.319494 3.725 112 101 95
0.418034 -0.319368 3.54336 50 92 110
0.801083 0.641678 3.91619 114 74 57
1.4886 -0.756309 4.03441 172 146 78
1.6405 -2.72732 11.0588 166 150 72
1.21791 -0.0631779 3.37172 36 62 54
-3.25799 -2.46554 11.6104 180 174 160
1.09303 0.351882 3.58856 94 40 30
-1.60144 0.744699 5.90759 158 148 137
-1.43913 0.185407 4.31459 144 130 102
0.663533 0.655852 3.84193 106 69 62
0.528118 0.479446 3.88373 42 43 58
1.14501 0.0134103 3.34083 124 110 104
1.27266 -0.0891467 3.41781 36 67 66
0.318317 -0.759703 3.99441 148 152 108
1.02524 -0.210808 3.36747 49 88 102
-1.08779 -0.355898 3.53427 17 32 9
1.06636 -0.0994881 3.34406 56 92 103
0.891541 0.279629 3.57472 130 88 88
1.03595 0.741348 3.84858 70 78 82
-1.02004 0.785505 4.77069 207 198 184
0.834845 0.918085 3.68297 160 152 144
0.761179 0.670344 4.18906 112 66 49
2.57387 1.05171 4.53781 158 148 136
1.03993 0.940239 3.49712 176 164 152
1.16704 1.06842 4.20482 156 147 140
1.64936 1.13211 4.20118 180 170 159
-1.75953 0.136896 4.20646 213 198 158
1.78619 1.26886 4.62084 187 178 168
0.468798 0.242536 3.70925 74 112 97
0.613673 0.0943865 3.59176 76 54 48
-1.77303 0.387913 4.38229 188 178 149
0.718189 0.135568 3.56829 142 109 110
0.910949 0.233725 3.56443 100 42 47
-1.47806 -0.0809723 4.45282 138 32 28
-0.178264 0.187705 2.2916 111 78 80
-1.58204 -0.490169 4.40725 54 78 27
-1.39975 0.619151 4.5641 124 112 98
-1.31619 0.0765259 4.46478 132 116 90
-1.37903 0.494706 4.88445 113 101 85
-1.91309 -0.680354 4.13336 54 78 19
-1.94257 -0.0375721 4.32341 230 199 172
-2.06616 -0.341649 4.2806 46 66 19
-1.46823 -0.305964 3.57717 4 22 1
-1.47824 -0.450713 4.29185 54 64 28
-1.8391 -0.0541621 4.19609 168 66 56
-1.35777 -0.342942 4.3565 19 29 10
-1.53641 0.244104 4.31203 47 44 17
-1.54932 0.188486 4.28482 158 144 114
-1.4821 0.122578 4.29436 159 143 115
-1.71585 0.0621305 4.33396 193 173 140
-1.6932 0.00922729 4.24729 128 39 34
-1.70182 -0.0913649 4.28642 154 36 27
-1.36546 0.321347 3.77647 160 152 132
-1.64723 0.2693 4.30136 186 173 140
-1.39622 0.0799304 4.40657 137 114 89
