ply
format ascii 1.0
element vertex 540
property float x
property float y
property float z
property uchar red
property uchar green
property uchar blue
end_header
-5.0145 -4.65323 -0.164077 0 255 0
1.25031 -3.20142 0.0360183 0 255 0
-6.56434 -1.0762 -0.10575 0 255 0
-5.38114 -1.02756 -0.800772 0 255 0
-4.05576 -1.02159 -1.43125 0 255 0
-2.53971 -0.779404 -1.95039 0 255 0
-1.14666 -0.558568 -2.23075 0 255 0
0.0799077 -0.526925 -2.19116 0 255 0
1.59025 -0.405593 -1.94497 0 255 0
2.04767 -0.423508 -1.85531 0 255 0
1.42643 0.441838 -1.82969 0 255 0
0.336468 0.561836 -1.51781 0 255 0
-1.2827 0.314824 -1.55366 0 255 0
-2.77852 0.0356407 -1.69077 0 255 0
-5.05885 0.42324 -1.54101 0 255 0
-3.27609 -1.41187 12.0356 76 55 33
-3.39321 -4.06155 12.851 142 144 100
-4.66164 -5.44537 13.0878 134 134 88
-4.5035 -4.94869 12.9205 75 76 55
-4.4921 -5.20142 13.0209 111 116 74
-4.66575 -5.43991 13.0545 142 142 94
-3.24488 -3.60805 12.542 114 115 94
-4.43795 -4.87666 12.6958 94 91 68
-1.41324 1.26585 18.4715 42 26 14
-0.477422 4.4417 15.5002 144 110 108
4.05558 -3.39668 10.3465 67 68 32
4.00666 -3.3774 10.3389 72 73 46
0.544165 3.91896 12.7706 76 40 37
-2.67893 -1.04876 12.1682 138 123 86
-1.55993 -2.0333 12.8924 96 99 66
-4.4059 -2.10913 15.1653 98 74 26
1.18377 0.794191 11.3475 118 80 58
-0.471233 4.31399 12.9489 64 30 26
-0.859759 3.10732 12.3144 124 101 100
-0.106942 3.34661 12.2446 128 100 100
-0.119149 3.93352 12.6866 126 98 96
-0.242051 4.50009 13.1371 95 66 64
-0.260206 -0.358023 12.5727 126 128 122
0.0933578 1.1687 10.4491 146 128 124
-0.033955 1.54672 11.0603 50 28 25
0.896649 3.58366 12.9985 60 22 14
-0.91494 3.13872 12.1845 118 93 91
-0.509366 4.33637 13.0359 126 92 88
-0.287822 4.45426 13.0048 98 68 64
-1.40566 -2.07577 13.1201 128 132 84
-3.64084 -2.35017 14.6479 98 96 50
1.8746 -0.563356 12.9749 120 131 88
2.11576 0.591176 11.9332 109 110 80
0.597763 3.46137 12.594 120 86 83
-0.81219 4.16003 12.9103 124 90 86
-0.940349 4.20973 13.039 122 74 59
-0.44488 4.35511 13.1136 104 67 63
-0.942369 4.25158 13.1229 149 101 84
2.75198 -0.883135 12.2684 56 36 8
2.30577 -0.180478 11.4463 150 110 96
0.730257 2.69921 9.15927 71 45 22
-0.0475134 4.0286 13.0328 106 73 72
-1.43078 3.80308 13.4414 126 100 98
-2.19617 -0.848967 14.7663 174 160 123
0.0403627 2.56421 11.8047 32 12 10
-0.936178 3.10306 12.1804 104 78 74
0.583656 4.3287 13.8138 60 25 24
-0.123242 4.32617 13.0725 70 34 30
-4.40584 -2.13366 15.1318 110 90 42
2.42571 -0.459101 11.4848 124 86 64
1.85993 -0.697745 13.7722 166 174 132
-2.24522 -0.618172 14.3857 114 100 83
-2.60082 1.79369 14.4119 70 52 36
-0.867863 3.14946 12.3611 104 78 74
-0.276379 4.42566 13.0421 108 76 70
-4.07249 -2.26219 14.7315 74 64 26
-1.03087 1.03841 10.9134 176 148 145
-2.70761 1.09196 14.1952 151 135 110
-2.21178 2.92451 15.1481 81 53 36
-1.52964 3.68721 13.1821 102 67 64
0.923935 -1.48327 11.3166 101 104 92
-0.39267 1.16925 10.739 132 89 74
-1.03415 1.15536 11.1514 73 36 20
-0.116806 3.95644 12.6975 125 99 98
0.664714 -1.26131 11.5177 93 97 84
-3.09325 -3.86803 13.0927 102 104 61
-0.283174 -0.243232 12.6805 148 148 146
-0.110416 3.39326 12.3092 110 86 86
1.80661 -0.0168971 11.5199 144 147 108
-2.50786 -1.7939 14.0903 132 135 90
-0.235285 -0.355676 12.6782 120 121 117
-3.5892 -4.34728 13.0836 86 86 51
-3.33659 -4.13351 13.141 110 113 66
-4.14204 -4.45084 12.9778 55 58 34
-2.5463 -0.209872 13.4 112 110 84
-2.33235 0.0288854 13.6869 118 104 83
-0.999908 -0.875261 11.4548 74 82 51
-2.3314 0.0328882 13.7292 106 97 77
0.773872 1.36717 10.0516 116 117 98
-2.49353 0.127174 13.6114 98 77 62
-3.00798 -1.15365 13.3506 151 147 103
0.726515 2.67606 9.07752 95 63 40
2.7628 -0.883423 12.3068 47 30 2
2.02857 -0.860264 13.9587 76 82 46
1.61652 -0.577207 14.5845 132 120 104
-0.740566 -0.252742 12.6117 64 60 40
-2.54112 -0.25641 13.8249 88 86 66
1.0832 1.11592 11.0267 142 114 104
-1.02536 1.41526 11.1127 86 53 48
-1.01747 1.72573 11.2893 109 85 80
-0.0837512 2.16543 11.4516 121 99 97
-0.812544 4.14214 12.9129 121 85 76
-0.887605 4.25811 13.0962 135 88 70
1.95298 -2.33215 10.5319 78 86 62
-1.66702 -1.06747 13.7039 148 150 110
2.31616 -0.219318 11.3858 130 96 76
-2.09234 -0.606095 10.4803 32 35 9
-1.01663 1.70763 11.2906 109 90 84
-2.36074 -1.97257 12.5032 66 66 40
-0.772753 -1.16841 11.5309 86 86 44
-2.38893 -1.06398 14.7103 160 142 97
-0.256591 -0.246182 12.6272 136 136 134
-1.3627 1.08836 10.9099 77 30 9
2.54107 -0.702682 12.1821 102 98 62
2.49405 -0.651615 11.9821 144 130 95
1.78811 -0.46111 14.2114 124 100 73
1.46851 -0.446006 14.1409 30 12 6
-1.01889 1.69263 11.3041 110 91 86
1.3237 -1.83519 11.0312 68 74 54
1.1511 -1.69027 11.1851 78 86 68
-4.40272 -2.13822 15.2288 96 74 26
2.47471 -0.6569 12.0021 160 166 124
-2.81083 0.734946 13.6931 88 54 28
-0.114417 2.87747 11.9371 94 72 71
1.26395 3.70586 13.275 73 41 32
2.45778 -0.630033 12.1067 155 166 122
-3.82662 -4.59127 13.0224 101 100 59
-2.09777 -2.78344 13.0595 95 96 60
-0.909986 -0.863042 11.8496 96 98 68
1.63765 -0.558954 14.1922 156 142 110
-2.05496 -0.6586 10.4548 74 68 39
-2.64969 -0.27619 12.9784 106 96 82
-2.75965 0.310235 12.5949 66 36 19
-1.52138 3.68761 13.1695 126 90 83
-0.842808 4.3087 13.1018 87 42 30
-0.432606 -2.84013 11.1495 95 103 53
-2.56951 -3.29577 12.9862 112 115 70
1.32027 -1.83055 11.027 88 94 77
1.19572 0.904305 11.4096 62 29 10
-4.10186 -4.75362 12.9867 46 48 24
-2.5838 -3.28792 12.9402 102 104 61
-3.0753 -1.16846 13.293 86 60 34
1.57719 0.587412 11.3376 134 86 71
-5.16319 -5.8251 12.9665 82 74 32
-1.59083 -1.72993 12.694 94 95 66
-0.891743 -0.875172 11.9257 85 90 63
0.768789 2.62887 9.0382 88 58 40
-3.83506 -4.59209 13.0265 107 106 66
2.13996 -2.48115 10.3774 71 78 52
-0.295746 -0.234961 12.6638 138 137 138
-3.02014 0.318431 12.9435 152 112 86
-1.10665 0.864002 10.4956 41 13 8
-0.965236 3.70437 12.557 52 17 11
3.61829 -3.21403 9.59639 50 50 20
2.47958 -0.639964 12.0513 149 150 112
-0.498008 4.31238 12.9146 95 58 51
-4.48798 -5.18004 12.9212 84 90 50
-3.06074 -1.1488 2.76383 78 60 16
0.525401 -0.826645 12.2807 159 160 121
2.70149 -0.892646 12.3709 48 39 14
-0.29268 0.111919 13.2417 103 101 96
0.812503 2.78497 9.82221 120 98 86
-0.7375 4.08643 12.6733 74 27 20
-0.332296 4.38624 12.8762 96 60 54
-4.33299 -4.73593 12.9365 44 50 24
-3.39586 -0.718469 12.3895 151 138 91
1.41244 -0.684611 12.8649 148 164 120
-4.06358 -0.35635 5.64296 99 84 59
1.64962 1.44877 11.9286 152 146 130
-2.71461 1.0132 14.2609 136 116 90
1.58634 1.42001 11.8191 156 148 135
-2.82382 0.887306 13.8826 73 47 24
1.55848 0.471386 11.8492 112 87 71
-3.34354 -0.0858131 11.8109 142 110 88
-3.14961 0.0249409 9.71151 78 68 58
1.3871 3.44502 13.2905 106 83 72
-3.53051 1.36853 8.03079 102 82 58
-2.47371 -1.10203 14.2917 136 116 74
1.33575 2.86283 12.7683 108 84 74
0.616076 3.57404 12.8103 64 30 26
-2.66053 0.19242 12.008 56 46 30
-2.52399 0.323001 12.9783 88 84 92
0.360223 1.27308 11.0277 144 120 116
0.91676 1.63589 11.5439 52 36 26
-0.89759 1.78909 11.6773 99 76 74
-2.68333 -0.777238 13.2757 137 122 76
1.9755 -0.117635 12.7428 119 92 64
-1.40239 -0.495676 20.6054 136 130 87
-2.61798 0.110145 12.3562 110 106 87
1.09093 0.899885 11.1629 62 30 14
-0.550698 -0.266139 12.1035 134 134 133
1.41552 0.913658 11.9559 110 82 68
1.15537 1.10514 11.4247 154 128 115
0.94622 2.725 9.65565 156 148 135
1.42989 2.02015 12.1075 151 143 129
-4.26325 -5.00152 13.0238 110 108 64
-2.63003 -3.67174 10.2728 77 80 30
-1.18593 -4.23677 13.9769 92 102 67
-3.48819 -3.91207 12.8583 70 72 51
-3.09209 -3.854 13.0462 83 85 44
-0.902957 -2.8053 13.1715 108 116 82
1.14748 -1.67025 11.2068 86 92 76
2.85766 -0.95771 12.3217 152 152 108
2.62646 -0.856123 12.0384 56 38 7
-0.841436 -1.16107 11.1437 98 97 64
2.03294 -0.706849 12.6951 140 154 114
-2.88449 -1.36218 13.7201 134 119 82
2.18953 -0.740642 13.1451 96 109 68
-3.07161 -1.18493 13.3221 78 56 30
1.77439 -0.461229 14.1101 145 129 100
-2.12054 -0.849564 15.166 151 137 99
-1.49939 -0.714582 10.4787 114 120 90
2.09628 -0.0138235 11.2809 129 92 76
-1.69635 -0.462157 10.1079 116 126 98
-3.05119 -0.55937 10.7119 74 75 52
-2.17242 -0.400381 10.3692 105 105 78
-2.37408 -0.144945 14.7917 124 118 95
-1.84591 -0.239307 9.94804 112 122 93
2.09697 0.599987 11.9842 89 98 59
-2.03987 0.0507066 9.78136 107 119 92
1.57816 0.809991 11.6674 80 35 8
0.93182 0.855611 11.258 56 28 16
1.09411 0.922736 11.1006 83 52 29
-1.24215 0.718577 11.467 95 68 61
1.08489 1.10721 11.0498 108 80 72
-2.10722 0.564539 9.80258 131 97 70
-2.41668 0.791849 9.29693 63 66 46
-1.78488 1.319 11.4298 160 114 103
-0.356595 2.0167 11.2258 116 83 77
0.582265 2.57797 9.05253 161 143 133
-0.855043 3.13717 12.3056 63 26 22
0.790575 2.61947 9.05713 122 99 79
0.60847 3.53696 12.7419 58 27 25
-0.933107 3.23565 12.3397 54 14 6
0.578242 4.01117 13.0503 129 99 97
-0.781929 4.26955 12.9057 80 36 24
-4.07316 -4.82539 13.0745 98 98 56
3.05414 -1.50003 12.0431 78 74 31
2.93476 -0.8528 12.1736 132 129 92
-1.3622 -1.33197 12.1311 50 51 12
2.05389 -0.842753 14.0288 70 69 34
-1.62007 -1.18826 11.56 108 110 70
1.55726 -0.557528 14.0264 154 138 112
-0.762692 -0.272372 12.6101 63 61 40
-1.83064 -0.234068 10.1097 102 113 83
1.55176 0.436299 11.4851 100 54 22
1.10096 0.911535 11.1818 64 30 10
1.67824 1.2867 11.893 87 63 51
1.25905 1.20448 11.4179 158 130 120
0.0484059 1.06996 10.6632 130 106 95
0.0570327 1.10557 10.4299 127 108 100
-2.42696 0.56175 9.2739 102 110 88
-2.23293 0.704481 9.6127 162 118 92
-2.41877 0.789453 9.29713 60 62 43
-1.02974 1.40895 11.1304 88 51 45
0.847622 2.53532 12.16 98 68 66
0.824555 2.93363 12.2768 105 74 70
0.878235 3.46852 12.7568 48 14 5
0.595468 3.49599 12.5463 123 96 93
0.730772 2.64387 9.01016 100 68 49
0.682074 2.64818 9.00339 114 90 75
-0.882345 3.80982 12.8092 54 16 10
-0.302667 4.44583 13.072 95 62 56
-0.476456 4.44624 12.9536 122 86 78
-1.68735 -6.49733 16.3898 86 90 32
-4.05666 -4.42085 12.8885 89 88 65
-0.978355 -3.03002 13.2443 94 103 62
1.34482 -1.84189 11.0757 88 94 76
-1.05242 -1.36909 12.6605 56 56 10
-2.86917 -1.34661 13.8481 140 124 84
0.223126 -0.885736 11.9176 87 85 68
1.52269 -0.554123 13.8147 156 142 112
1.72674 -0.465289 13.9422 140 126 95
-2.48849 -0.629579 14.8094 154 150 103
-3.23688 -0.691546 12.8528 144 100 76
-1.6938 -0.460281 10.1872 112 122 92
-2.15482 -0.393199 10.4673 100 100 70
1.58505 0.550426 11.9219 51 24 10
-3.06085 0.442706 12.8088 111 65 37
1.01048 0.919603 10.9853 70 40 17
-1.24729 0.714688 11.5053 96 68 60
1.92307 1.43905 12.5348 114 96 86
0.739507 3.02601 12.3981 115 90 88
0.815772 3.43802 12.6359 46 15 6
0.69361 2.66342 9.66592 100 82 72
0.738153 2.64597 9.04699 90 53 30
0.512896 3.52651 12.4891 54 22 18
-6.34713 1.58037 9.62815 90 80 60
-0.880086 3.54911 12.3522 94 56 52
-1.03976 4.34125 13.1781 104 58 40
-1.71201 -6.39728 16.0339 91 94 37
-3.10348 -3.88463 13.1616 98 98 53
-4.0585 -2.25392 14.7465 47 38 6
-1.12021 -1.37703 12.298 52 55 12
-0.889645 -1.17031 11.2757 59 64 18
2.03504 -0.841976 14.0224 68 64 32
2.04236 -0.716745 13.8788 66 57 32
1.57903 -0.587804 14.4502 116 99 84
-0.0453595 -0.681198 11.9693 73 82 70
-2.49654 -0.64277 14.6634 153 152 101
-3.03404 -0.695255 12.6806 145 142 95
1.65509 0.510622 12.0174 168 136 122
1.53594 0.540922 11.7565 64 34 16
0.432306 0.650393 10.778 66 61 46
1.05427 0.789767 11.3896 30 10 1
0.786779 0.871672 10.8168 118 84 70
-2.28286 0.385195 9.52661 112 120 94
-2.11751 0.552329 9.66378 143 103 74
0.962064 1.22212 10.8299 100 68 62
0.141991 1.21056 10.6195 158 137 132
-0.135807 1.59353 11.1078 24 6 2
0.769575 2.75902 9.68799 150 135 126
-0.91348 3.6497 12.6963 74 24 14
0.216995 4.24124 12.9674 140 114 110
-1.66759 -6.50361 16.4256 84 88 32
-3.5893 -4.32403 12.9826 64 64 31
-3.54449 -4.28363 13.1015 99 101 61
-3.34743 -4.107 13.0585 77 80 37
1.53786 -2.00851 10.9503 76 84 62
1.77048 -0.7146 13.9879 148 160 120
1.60299 -0.595135 14.5931 102 84 72
1.92621 -0.55686 13.9662 152 152 113
1.44947 -0.557746 13.8897 132 118 96
-0.259089 -0.357422 12.6711 105 106 104
1.64879 0.457612 11.7305 104 58 24
-3.22272 -0.0554404 12.7355 160 134 110
1.18254 0.87359 11.5531 104 75 60
-1.22645 0.622048 11.3537 20 6 2
1.66983 1.34986 12.0826 72 47 37
-2.86774 0.805665 12.994 122 92 69
-1.79212 1.32613 11.5371 132 86 74
-1.79455 2.63515 12.5611 118 96 90
-0.931997 3.09617 12.1217 111 86 82
0.555565 4.01115 13.0098 117 88 86
-0.962327 3.58527 12.51 68 22 16
2.90888 -5.24205 12.6625 74 88 45
-4.16293 -4.48053 12.9754 43 46 25
-2.58648 -3.31248 13.0359 105 108 64
0.922157 -1.49787 11.3543 70 74 62
-1.09477 -1.40469 12.6092 49 53 14
1.97981 -0.55082 14.0153 146 159 116
-2.31342 -0.702168 14.2794 60 32 16
-2.51335 -0.649007 14.3997 151 146 96
-0.619929 -0.270316 12.5583 120 118 104
-2.98242 -0.252666 13.0357 124 106 70
-0.819802 0.480537 11.2018 82 61 49
-1.12212 0.700007 10.8141 22 6 5
-0.836299 0.977836 11.4015 36 12 10
-0.279619 4.42694 12.9592 94 54 46
3.52238 -1.49231 13.051 94 88 46
1.43335 -0.426569 13.0849 130 114 82
-0.541382 -0.0680809 12.4502 51 58 42
-2.99037 -0.265401 12.9065 122 106 68
-0.539848 0.0802466 12.5658 96 92 85
-1.17399 0.677652 10.7289 20 6 4
1.038 1.14045 10.9801 136 108 103
-3.06097 -1.70875 14.0821 144 140 85
0.61053 -0.906974 12.4713 154 153 119
1.22814 -0.606913 11.8265 148 158 116
1.674 -0.282394 11.6655 136 117 101
-2.54906 -0.734498 14.132 150 152 96
-2.98008 -0.278325 13.2259 112 100 65
-0.0188646 0.193443 12.9075 10 7 2
-0.865489 0.884699 11.0061 40 16 12
-0.109065 0.970995 10.2217 94 72 59
-0.700973 1.45797 13.8214 164 121 104
0.0561319 1.52801 11.0259 38 14 12
1.951 -0.786341 13.9499 134 131 100
0.0111951 0.203021 13.1508 34 33 23
2.6987 -0.824812 11.9903 100 75 44
0.338246 4.21389 13.0475 120 91 86
0.353817 4.26206 13.0898 71 45 41
3.0592 -1.50193 12.0454 100 99 52
-3.07164 -1.19182 13.2646 78 55 31
2.05401 0.0811485 13.1089 83 54 32
-1.22552 0.660626 11.4491 32 18 10
-2.26401 -1.6562 14.3004 122 126 78
0.881981 2.18297 11.9067 107 85 84
-2.86238 -1.34523 14.2453 158 145 103
1.72975 -0.511268 13.2486 140 145 103
2.1105 0.02708 12.3089 150 150 114
0.469811 -2.11761 13.7373 138 143 104
-0.532987 -1.95338 12.3471 164 166 120
3.25132 0.511007 15.0755 101 66 40
1.14693 -3.95848 12.439 132 140 94
0.311583 -2.60237 7.31407 140 144 96
0.776494 -2.60049 12.5956 148 150 110
-2.63301 1.66073 13.9948 120 94 70
-2.51975 1.84681 13.9205 126 111 85
1.17611 -2.79075 13.5458 148 153 107
1.98343 -0.847451 13.9025 58 52 22
-1.7915 -0.513611 17.2412 134 124 102
2.23482 0.309566 13.1302 46 20 4
2.00693 0.305975 12.6854 33 13 2
-2.78897 0.923293 13.7881 142 117 94
-3.30126 -0.119952 5.28861 118 106 68
1.29868 3.72006 13.2616 86 60 49
0.379629 -2.65142 7.44246 108 111 62
0.717418 -1.76372 11.9358 146 153 112
1.72892 1.0266 11.9474 121 83 65
-2.97143 0.614443 13.0475 154 136 112
-2.62084 1.77009 14.0615 51 26 11
0.872912 4.00346 13.141 94 62 53
1.2416 -4.04208 12.6649 133 140 95
1.36047 -2.92031 14.0932 140 146 102
0.985948 -2.68213 13.1661 132 134 96
0.583402 -1.67929 11.7354 126 132 102
1.06574 -0.477718 13.1023 57 40 28
0.214787 4.21953 12.9806 96 64 62
1.24786 -4.04133 12.6639 143 150 102
1.13697 -3.2222 13.568 62 72 34
0.702862 -2.61202 12.3879 143 148 104
0.383067 -1.64187 11.1892 112 118 90
1.54974 -3.44494 14.5983 74 86 44
0.910179 -2.71982 12.8968 143 148 104
0.126077 -1.67284 13.2068 156 162 116
1.98162 -0.566852 14.0247 146 154 111
-3.05942 0.0183934 5.34831 71 74 53
-1.63774 3.19695 12.9796 103 68 64
-4.38949 -2.18047 15.4417 108 88 39
1.24677 0.778071 11.3253 89 45 16
1.0822 1.10664 11.0183 92 65 56
1.0425 1.17377 11.0434 96 68 62
0.822103 4.17142 13.4294 92 68 64
0.552318 4.0277 13.1071 56 26 24
0.294592 4.23999 12.8752 72 44 39
-0.475793 4.41489 12.8522 114 76 68
-0.886447 4.16377 12.9542 82 33 21
2.72757 -0.879329 12.285 40 31 2
-2.94445 -1.42729 13.7357 52 32 16
0.45723 0.675193 10.8471 67 60 46
1.07659 1.10221 10.9831 100 73 66
-0.78545 4.2687 12.9524 84 42 35
0.455053 0.677875 10.8569 67 60 46
-0.952471 0.941734 10.8415 44 18 10
-0.108166 1.17639 10.7054 80 42 26
-1.79024 1.31564 11.4055 142 93 80
-0.771355 4.22623 12.807 112 70 62
-0.99989 1.99364 11.4432 116 91 86
-3.88419 -2.17421 14.7582 121 118 70
0.339082 4.27143 13.056 81 52 47
-1.6747 3.17542 12.9025 106 70 64
1.03728 0.913299 11.2539 106 82 72
-2.97797 -1.69461 14.1074 140 129 98
-0.0465143 0.974926 10.4589 103 84 67
1.02633 1.25347 10.8881 142 112 108
-0.106633 2.53291 11.6435 122 96 92
0.59383 3.99878 12.9943 80 54 54
0.836589 4.15432 13.3843 80 60 58
-0.140598 3.93823 12.5774 120 98 96
-0.835926 4.08971 12.7467 127 88 78
-0.0929472 4.37375 13.0803 100 64 57
-0.480228 4.30716 12.8586 78 38 30
0.503067 0.918992 10.3042 121 105 86
1.06529 1.17444 10.9577 152 127 120
0.0024743 1.07179 10.3052 132 109 96
2.07868 1.87997 13.3441 123 110 94
0.998172 1.57778 11.4228 119 102 99
1.54437 2.32615 12.6662 125 110 102
-1.57792 -1.72357 12.7514 80 82 53
0.913744 0.918612 11.2417 118 86 66
1.00718 0.938272 11.1584 59 36 26
1.47014 1.01722 11.2512 62 25 12
-1.36993 1.08606 10.9472 92 44 16
1.54672 2.40655 12.848 122 108 102
-1.03979 4.32009 13.1283 104 58 38
0.934505 1.17338 10.8184 70 30 24
0.0492418 1.1973 10.0942 146 125 120
1.05333 1.5751 11.4242 34 14 10
-0.285097 4.42143 12.964 78 43 35
1.57935 1.74531 12.2857 28 7 3
-0.91366 -0.431081 12.5487 27 14 4
2.87768 -0.982726 12.3716 148 154 114
-1.66778 2.14358 12.011 28 8 3
-1.04915 3.72795 12.6604 41 11 2
-0.792636 4.23667 12.9443 89 44 38
0.852802 1.15377 10.8248 72 38 28
-0.86636 3.18362 12.1359 50 11 4
-1.52181 3.70334 13.1405 124 82 76
0.901618 0.930829 11.248 113 82 63
-3.01328 -0.774268 12.8208 132 124 68
-0.947327 3.064 12.0951 110 68 56
-1.00207 3.69331 12.5376 42 10 4
-0.926412 4.28055 13.245 103 50 32
-1.5399 3.82214 13.446 92 50 45
1.05316 4.08796 13.4912 96 66 60
0.192057 4.35346 13.201 108 86 86
-2.30648 2.9357 13.8278 101 62 42
0.896917 4.14289 13.6605 92 62 58
-0.35028 -0.27061 12.9276 114 112 113
-0.280425 -1.21503 10.5391 74 84 70
1.80943 0.826629 11.5863 74 48 34
1.2781 0.797486 11.3797 94 48 21
2.17916 1.22004 13.1018 70 58 44
2.13434 1.79739 13.5727 112 102 85
2.13499 1.86103 13.6025 42 32 18
2.12799 1.91747 13.5851 102 90 76
0.949311 1.84009 11.4746 120 100 97
1.96129 2.26014 13.6983 137 126 113
1.07365 2.45625 12.1711 106 76 73
-1.78466 2.58378 12.4573 124 90 80
0.873206 4.00873 13.1678 115 90 86
-0.14111 3.8078 12.4784 122 99 96
3.77544 -3.35126 9.61405 130 134 92
1.30716 -1.80862 11.0393 75 80 60
1.4725 1.02092 11.2643 62 26 10
0.940551 1.84616 11.5794 120 98 96
-1.96133 -2.14917 12.7136 79 80 54
1.97532 -0.798147 13.7161 77 74 43
1.94686 -0.750756 14.3021 144 147 110
1.79255 0.813052 11.4259 79 53 40
1.77434 1.02419 11.58 76 56 50
-1.79974 2.61175 12.5661 115 82 70
-1.6425 3.13701 12.7392 118 78 70
-0.866946 3.6427 12.428 116 86 82
-2.12554 -0.635099 10.6453 139 138 86
1.74283 3.24248 14.0596 82 61 47
-0.053091 4.36507 13.0708 72 35 30
2.05959 -0.749385 13.3555 140 154 110
0.999336 1.22517 10.8457 132 102 97
1.58736 1.78026 12.396 21 8 4
1.9205 1.95011 13.1997 39 19 10
1.53236 2.3592 12.6321 98 88 82
1.35842 3.42225 13.3088 98 74 69
3.69018 -3.22749 9.81569 39 46 20
1.19785 0.771888 11.5811 34 12 4
-0.950889 0.69954 10.8219 20 9 4
0.516578 0.936141 10.3102 118 98 83
1.81285 2.3515 13.4751 39 16 9
-2.30095 -2.52631 12.8074 70 74 48
2.01546 0.237777 11.6047 48 22 8
1.86518 0.389479 11.5035 72 43 24
1.03902 1.598 11.4718 27 6 4
0.167067 1.7483 9.38956 68 40 35
0.917967 2.22946 17.3925 62 37 36
